ply
format ascii 1.0
element vertex 1275
property float x
property float y
property float z
property uchar red
property uchar green
property uchar blue
end_header
-0.022465 -0.032436 -0.530180 76 0 153
-0.177105 0.018901 -0.184723 76 0 153
-0.660499 0.031903 -0.500036 76 0 153
-0.311705 -0.032436 0.470507 76 0 153
-0.049513 0.020088 -0.140284 153 0 76
-0.662681 0.029242 0.190174 0 127 127
0.022714 0.018901 -0.111720 76 0 153
0.171479 0.018901 -0.180941 76 0 153
0.837102 0.031903 -0.179532 76 0 153
-0.032575 0.018901 0.128428 76 0 153
-0.304058 -0.032436 0.089195 76 0 153
0.274128 -0.032436 0.401555 76 0 153
0.613797 0.018901 0.194715 76 0 153
-0.465506 0.031903 -0.301312 76 0 153
-0.702350 0.017391 -0.562616 76 0 153
0.056425 0.031903 -0.415862 76 0 153
0.866709 0.012662 -0.257213 76 0 153
0.353031 -0.032436 -0.318261 76 0 153
0.184193 -0.032436 0.067112 76 0 153
-0.443441 0.018901 0.090874 76 0 153
0.744377 0.031903 -0.481875 76 0 153
-0.692277 0.018901 0.081999 76 0 153
-0.078467 -0.032436 -0.096945 76 0 153
0.131665 -0.032436 -0.089688 76 0 153
-0.293057 -0.032436 0.122251 76 0 153
-0.065644 0.031903 0.360256 76 0 153
-0.037554 0.031903 0.498788 76 0 153
-0.512917 -0.023601 -0.557908 76 0 153
0.221004 -0.032436 -0.420695 76 0 153
-0.699002 0.018901 -0.204672 76 0 153
-0.294710 0.031903 -0.355967 76 0 153
-0.759524 -0.032436 0.376265 76 0 153
0.400887 -0.032436 -0.386017 76 0 153
0.276677 -0.032436 0.329069 76 0 153
0.196425 0.031903 0.415308 76 0 153
0.557946 0.035299 -0.554920 76 0 153
0.820252 -0.032436 -0.259358 76 0 153
0.572712 -0.032436 0.394466 76 0 153
-0.290103 -0.032436 -0.194198 76 0 153
0.280147 0.018901 0.261717 76 0 153
0.461594 0.031903 -0.483769 76 0 153
-0.286304 -0.032436 -0.107644 76 0 153
-0.830409 0.030508 0.206143 76 0 153
-0.423138 0.029242 -0.157477 76 0 153
-0.561837 -0.032436 -0.392403 76 0 153
0.286216 0.029242 0.069983 153 0 76
-0.086834 -0.032436 0.353323 76 0 153
0.599261 -0.032436 -0.075157 76 0 153
0.419556 -0.032436 0.263545 76 0 153
0.646383 0.003723 0.581447 76 0 153
-0.536687 0.031903 0.365796 76 0 153
-0.131823 -0.032426 0.555048 76 0 153
0.234152 0.031903 0.378731 76 0 153
0.245026 0.031903 0.409224 76 0 153
0.519115 -0.000543 -0.542043 76 0 153
0.369106 0.029242 0.114947 76 153 0
0.499693 -0.032436 -0.047286 76 0 153
-0.693619 0.031773 0.539277 76 0 153
-0.195476 0.031903 0.521875 76 0 153
0.609420 -0.032436 0.081313 76 0 153
-0.674006 -0.032436 0.063480 76 0 153
-0.731245 0.031903 -0.531944 76 0 153
0.273664 0.027285 -0.543407 76 0 153
0.125441 -0.032420 0.565553 76 0 153
-0.356425 0.031903 -0.311213 76 0 153
-0.028932 -0.032436 -0.316261 76 0 153
-0.703758 0.031903 -0.331779 76 0 153
-0.538627 0.029242 0.014712 0 255 0
0.422155 0.031903 0.517677 76 0 153
-0.264537 0.029242 -0.044628 0 255 0
0.347881 0.018901 0.075992 76 0 153
0.771227 -0.032425 0.556517 76 0 153
0.782089 0.022883 -0.199508 76 0 153
0.760681 0.019137 -0.213106 76 0 153
-0.581966 0.031903 0.334227 76 0 153
-0.088183 0.031903 -0.413674 76 0 153
0.527201 -0.032436 -0.127110 76 0 153
0.004646 -0.001175 0.580808 76 0 153
0.627037 0.029242 -0.011516 76 0 153
0.835492 0.031903 0.475796 76 0 153
-0.776729 0.031903 0.347727 76 0 153
-0.598601 0.031903 -0.312371 76 0 153
0.671835 0.029242 0.102651 0 255 0
0.111886 -0.032436 -0.435780 76 0 153
0.177983 -0.032436 0.205223 76 0 153
0.730255 -0.032436 0.112698 76 0 153
-0.433164 0.029242 0.053813 153 0 76
-0.108220 0.029242 -0.170166 204 51 127
-0.795452 0.031903 0.195707 76 0 153
-0.083238 0.029242 -0.178349 204 51 127
-0.403638 0.023548 0.568400 76 0 153
0.357585 0.018901 0.031036 76 0 153
0.781594 0.021988 0.092048 76 0 153
0.707141 0.018901 -0.142546 76 0 153
-0.475398 0.031903 -0.495009 76 0 153
0.189837 -0.032436 0.034676 76 0 153
-0.414605 -0.032436 -0.283247 76 0 153
-0.135191 -0.032436 0.523203 76 0 153
-0.430158 -0.032436 -0.049647 76 0 153
0.865277 -0.008431 0.001812 76 0 153
-0.473953 0.021607 -0.564808 76 0 153
-0.336241 -0.032436 0.034485 76 0 153
-0.409488 0.031903 0.489771 76 0 153
-0.148353 0.024070 -0.077416 0 255 0
-0.295777 -0.032436 0.367892 76 0 153
-0.835276 -0.019000 -0.261560 76 0 153
-0.630270 -0.032436 0.047724 76 0 153
0.401470 -0.032436 -0.074470 76 0 153
0.410105 0.031903 0.333983 76 0 153
-0.200127 0.020336 -0.230561 76 0 153
0.828452 -0.031701 -0.019361 76 0 153
0.000345 0.031903 0.324113 76 0 153
0.381311 0.018901 -0.128482 76 0 153
-0.201587 -0.032436 0.426985 76 0 153
0.583785 0.031903 -0.354250 76 0 153
0.039669 -0.032436 -0.474195 76 0 153
-0.597773 -0.032436 -0.094084 76 0 153
-0.791499 0.031903 0.035397 76 0 153
0.530854 -0.032436 -0.450630 76 0 153
0.542472 0.022239 -0.093744 127 0 127
-0.546494 -0.032436 -0.345977 76 0 153
-0.207477 -0.032436 -0.129772 76 0 153
-0.051298 -0.032436 0.204626 76 0 153
-0.542438 0.029242 -0.081460 153 0 76
0.552018 -0.032436 -0.216251 76 0 153
0.215570 -0.032436 0.465869 76 0 153
-0.844327 0.020590 0.361427 76 0 153
0.472638 -0.032436 0.327660 76 0 153
0.010100 -0.032436 -0.357706 76 0 153
0.548478 0.031903 0.488945 76 0 153
-0.428668 -0.032436 0.467544 76 0 153
0.087034 0.029242 -0.062913 153 0 76
-0.601425 0.031903 0.379112 76 0 153
-0.266896 0.031903 0.488375 76 0 153
-0.460193 -0.032436 0.060690 76 0 153
-0.196525 0.028007 -0.089943 0 255 0
0.795741 -0.032436 -0.251066 76 0 153
0.165400 0.029242 0.019009 153 0 76
-0.509959 0.018901 -0.170866 76 0 153
0.319774 0.031903 -0.440121 76 0 153
-0.464815 -0.032436 -0.477370 76 0 153
0.702640 -0.032436 -0.095698 76 0 153
0.055867 0.018901 -0.103825 76 0 153
0.481871 -0.032436 0.117127 76 0 153
0.049679 0.029242 0.175215 76 0 153
-0.844327 0.014845 -0.136361 76 0 153
0.147054 -0.032436 0.247153 76 0 153
0.725158 -0.032436 -0.471043 76 0 153
0.429684 -0.032436 -0.049218 76 0 153
-0.301052 -0.032436 -0.171459 76 0 153
0.153935 0.024263 0.567284 76 0 153
-0.059179 0.020407 0.261888 76 0 153
0.742475 -0.032436 -0.527918 76 0 153
0.594917 0.031903 0.475308 76 0 153
-0.042850 0.016257 -0.542043 76 0 153
0.660480 -0.032436 -0.529304 76 0 153
-0.445565 0.031903 -0.457682 76 0 153
0.702721 -0.009514 -0.542043 76 0 153
-0.663089 -0.032436 0.163379 76 0 153
0.798953 0.031903 0.358135 76 0 153
0.493141 0.017781 0.575504 76 0 153
0.742370 -0.032436 0.006598 76 0 153
-0.161057 0.029242 0.178741 153 76 0
-0.687134 -0.032436 0.393619 76 0 153
-0.547291 0.029242 -0.181822 76 153 0
0.549512 -0.032436 0.416140 76 0 153
0.494977 0.018901 0.192697 76 0 153
0.341745 -0.032436 -0.375367 76 0 153
0.042236 -0.032436 0.011224 76 0 153
0.604353 0.031214 -0.387604 76 0 153
-0.612045 -0.032436 0.351063 76 0 153
-0.354492 -0.032436 0.473453 76 0 153
0.292593 -0.001579 0.580808 76 0 153
-0.379819 -0.032436 0.296821 76 0 153
0.006291 -0.032436 0.500189 76 0 153
0.834028 0.031903 -0.399508 76 0 153
0.330610 0.031903 0.304367 76 0 153
0.106345 -0.032436 -0.214158 76 0 153
0.791212 0.025238 0.057890 76 0 153
0.109173 0.031903 -0.514246 76 0 153
-0.600557 0.027904 0.047781 127 127 0
0.196470 -0.008433 0.580808 76 0 153
-0.091531 0.018901 -0.136356 76 0 153
-0.043416 0.031903 0.465357 76 0 153
0.057373 -0.032436 -0.299566 76 0 153
-0.709364 0.029242 0.051030 127 127 0
0.039520 0.031903 0.456057 76 0 153
-0.138633 0.031903 -0.330218 76 0 153
-0.608329 -0.013623 -0.549421 76 0 153
-0.082821 -0.032436 -0.045391 76 0 153
0.788384 -0.032436 -0.288829 76 0 153
-0.372477 0.030515 -0.563182 76 0 153
-0.447003 0.018901 0.167512 76 0 153
-0.820468 -0.027766 -0.376487 76 0 153
0.100549 0.031903 0.333337 76 0 153
0.319193 -0.032436 0.303452 76 0 153
0.415943 0.031903 0.394275 76 0 153
-0.536243 0.031903 0.390696 76 0 153
0.481678 0.018901 -0.137052 76 0 153
0.347526 0.029242 0.129391 76 153 0
0.432466 0.020609 0.139026 76 0 153
-0.629889 0.031903 -0.462642 76 0 153
0.020765 0.031903 0.305025 76 0 153
-0.618145 -0.032436 0.157718 76 0 153
0.066613 -0.032436 -0.020737 76 0 153
-0.470102 0.018901 -0.149208 76 0 153
-0.844297 -0.001314 0.463484 76 0 153
0.205801 -0.032436 0.164252 76 0 153
0.722242 -0.032436 -0.297698 76 0 153
-0.203088 -0.032436 0.242486 76 0 153
-0.823832 -0.026342 0.481101 76 0 153
0.535892 0.018901 -0.140518 76 0 153
-0.124995 -0.032436 -0.459753 76 0 153
-0.068006 -0.032436 -0.403632 76 0 153
0.421531 -0.032436 0.345071 76 0 153
-0.226535 -0.032436 -0.079779 76 0 153
-0.401193 -0.032436 0.525171 76 0 153
0.741484 0.018901 0.208708 76 0 153
-0.130337 0.018901 0.090016 76 0 153
0.407576 -0.032436 -0.245778 76 0 153
0.249759 -0.032436 -0.486593 76 0 153
-0.826014 -0.019840 0.574639 76 0 153
-0.661144 -0.032425 0.557397 76 0 153
0.103767 -0.032436 -0.043971 76 0 153
0.364990 0.035103 -0.551749 76 0 153
0.198053 -0.032436 0.499528 76 0 153
-0.404354 0.031903 0.446899 76 0 153
0.592099 -0.017503 -0.556028 76 0 153
-0.608577 -0.011003 0.580808 76 0 153
0.109915 0.009000 -0.542043 76 0 153
0.771530 -0.032436 0.376614 76 0 153
0.674782 -0.032436 0.482243 76 0 153
-0.702069 -0.032436 0.008088 76 0 153
0.287804 0.018901 0.092667 76 0 153
0.289746 -0.032436 -0.176310 76 0 153
0.640920 0.031903 0.315928 76 0 153
-0.476622 -0.032436 -0.095250 76 0 153
0.494628 0.017710 -0.562861 76 0 153
0.706228 -0.032436 -0.045614 76 0 153
-0.501125 0.029242 -0.066639 204 51 127
-0.562578 -0.032436 -0.505053 76 0 153
-0.080984 -0.032432 0.543039 76 0 153
0.693186 0.031900 0.536475 76 0 153
0.357777 -0.032436 0.360778 76 0 153
0.211662 0.018901 -0.118356 76 0 153
-0.010637 0.031903 0.399698 76 0 153
0.152269 0.031903 -0.344764 76 0 153
0.273848 0.031903 0.438386 76 0 153
0.151983 0.018901 0.209961 76 0 153
0.141134 0.031903 0.511236 76 0 153
-0.347158 -0.003396 -0.542043 76 0 153
-0.245790 -0.032436 0.379082 76 0 153
-0.341967 0.020438 0.007025 76 0 153
-0.141868 0.028395 -0.004678 127 0 127
0.020999 0.031903 0.360329 76 0 153
0.395412 -0.032436 0.220930 76 0 153
0.141995 -0.032436 0.118866 76 0 153
-0.596122 -0.032436 -0.432761 76 0 153
0.408217 -0.012877 0.580808 76 0 153
0.108888 0.031903 -0.308822 76 0 153
0.841425 -0.028313 -0.487649 76 0 153
0.390130 0.018901 -0.089770 76 0 153
-0.180572 0.029242 -0.010050 127 127 0
0.750611 0.031903 0.317762 76 0 153
-0.118339 0.019306 -0.376387 76 0 153
-0.199228 0.028113 0.423994 76 0 153
-0.481598 -0.032436 0.140769 76 0 153
0.430126 -0.032436 -0.134124 76 0 153
0.451667 -0.032436 0.515239 76 0 153
-0.129072 0.031903 -0.434013 76 0 153
0.835612 0.031903 -0.333986 76 0 153
0.591460 0.031903 0.380099 76 0 153
-0.279408 0.031903 -0.469798 76 0 153
0.507809 0.031903 0.494386 76 0 153
0.068122 0.031903 -0.531483 76 0 153
-0.505537 0.018901 0.028924 76 0 153
-0.321113 -0.032436 0.124128 76 0 153
-0.091969 -0.029458 0.573836 76 0 153
0.106805 0.018901 -0.226584 76 0 153
0.866709 0.004524 -0.471117 76 0 153
-0.733807 0.029242 -0.118969 153 76 0
-0.666503 -0.001753 -0.542043 76 0 153
-0.465853 0.024793 -0.240618 76 0 153
0.136952 -0.032436 -0.480370 76 0 153
0.610683 -0.032436 -0.302673 76 0 153
0.117903 0.018901 -0.020949 76 0 153
0.043123 0.026746 0.562365 76 0 153
-0.655435 0.018901 -0.048534 76 0 153
0.075236 0.030280 0.284164 76 0 153
-0.590800 -0.032436 0.493060 76 0 153
-0.099655 -0.032436 0.036293 76 0 153
0.565190 -0.032436 -0.122051 76 0 153
0.796402 -0.008223 0.580808 76 0 153
-0.185495 -0.032436 -0.429274 76 0 153
-0.844327 0.018670 0.251699 76 0 153
0.690234 -0.032436 -0.388553 76 0 153
0.304439 0.018901 -0.135780 76 0 153
-0.032949 -0.032436 0.398583 76 0 153
-0.649534 0.018901 -0.005420 76 0 153
0.521187 0.031903 -0.294470 76 0 153
0.530479 -0.032436 -0.313637 76 0 153
-0.360476 -0.032430 0.547611 76 0 153
-0.061786 -0.032436 -0.114859 76 0 153
-0.036510 0.029242 -0.020611 0 127 127
-0.330516 0.031903 -0.411843 76 0 153
0.619189 -0.012569 -0.543393 76 0 153
-0.011893 0.029242 0.112451 255 0 0
0.620442 0.020392 0.086693 0 255 0
0.839606 -0.028990 -0.274776 76 0 153
0.833307 0.031903 -0.111815 76 0 153
-0.253683 -0.032424 0.558600 76 0 153
0.463222 -0.032436 -0.532374 76 0 153
-0.571409 0.018901 -0.216512 76 0 153
-0.099988 -0.032436 0.144160 76 0 153
0.471898 -0.032436 0.218055 76 0 153
0.760663 -0.032436 -0.180415 76 0 153
-0.576635 0.020300 0.234014 76 153 0
-0.824524 0.031903 -0.160224 76 0 153
0.822223 -0.032436 0.106395 76 0 153
0.522869 0.031903 0.448663 76 0 153
0.081321 -0.032436 0.352846 76 0 153
-0.386479 -0.032436 -0.157081 76 0 153
0.048000 -0.032436 0.127520 76 0 153
-0.680228 -0.032436 -0.443769 76 0 153
-0.534212 -0.032436 0.336786 76 0 153
0.678945 -0.032436 -0.434084 76 0 153
0.781696 -0.032436 -0.364392 76 0 153
-0.603094 0.018901 -0.004632 76 0 153
0.663782 0.018901 0.032170 76 0 153
0.242854 -0.032436 0.368879 76 0 153
-0.530047 -0.032436 0.419087 76 0 153
-0.122605 -0.032436 -0.499641 76 0 153
-0.396033 -0.032436 0.382980 76 0 153
-0.515928 -0.002839 0.580808 76 0 153
-0.763359 0.031903 -0.505621 76 0 153
0.602971 0.031903 0.528023 76 0 153
-0.315769 -0.032436 -0.380139 76 0 153
-0.475216 -0.032436 -0.009822 76 0 153
0.074450 0.018901 0.145168 76 0 153
0.250346 0.031903 -0.446851 76 0 153
0.089132 0.024511 -0.543015 76 0 153
0.319079 0.011194 -0.542043 76 0 153
0.161277 0.018901 0.239378 76 0 153
0.668795 0.031903 0.502965 76 0 153
-0.633127 0.019223 0.083646 127 0 127
-0.244298 0.018901 0.092574 76 0 153
0.247783 -0.032436 0.072048 76 0 153
-0.759710 0.031903 -0.336057 76 0 153
-0.803153 -0.032060 0.210359 76 0 153
-0.503297 0.029516 0.554480 76 0 153
-0.109613 -0.001567 0.580808 76 0 153
-0.400747 0.028113 0.409196 76 0 153
-0.098244 0.024344 -0.239606 76 0 153
0.225985 -0.032436 0.195386 76 0 153
0.621529 0.029242 0.168682 127 0 127
0.082810 -0.032436 0.274885 76 0 153
-0.070391 -0.032436 -0.236286 76 0 153
0.220549 -0.032436 0.489622 76 0 153
0.778853 0.031903 -0.435606 76 0 153
-0.735248 0.031903 0.286281 76 0 153
0.362582 -0.032436 -0.186334 76 0 153
0.709023 0.018901 -0.098753 76 0 153
-0.104362 0.018901 -0.034917 76 0 153
-0.451391 -0.032436 0.032483 76 0 153
-0.638003 0.001522 0.581232 76 0 153
0.623231 -0.032436 0.484976 76 0 153
0.152217 -0.032436 0.029382 76 0 153
-0.648741 -0.032436 -0.002308 76 0 153
-0.447938 0.028250 0.375215 76 0 153
0.160980 -0.032436 -0.011930 76 0 153
0.457838 0.031903 0.408644 76 0 153
0.754717 -0.032436 0.187141 76 0 153
-0.774043 -0.032436 -0.272721 76 0 153
0.457215 -0.032436 -0.142767 76 0 153
-0.041339 -0.032436 0.023127 76 0 153
0.003025 -0.032127 -0.545824 76 0 153
0.236806 0.018901 -0.093699 76 0 153
0.228331 0.031903 0.523663 76 0 153
-0.704108 0.018901 0.198856 76 0 153
0.578007 0.018901 -0.002083 76 0 153
-0.670511 0.031903 0.353650 76 0 153
-0.375981 0.018901 0.148259 76 0 153
-0.714929 0.031903 0.354430 76 0 153
0.232338 -0.032436 0.248403 76 0 153
0.209962 0.031903 0.295074 76 0 153
-0.843836 0.026186 0.015157 76 0 153
0.222986 0.021234 0.224260 204 51 127
-0.804367 -0.031910 0.340864 76 0 153
0.043289 0.027795 -0.067198 76 153 0
0.098175 0.023880 0.028623 204 51 127
-0.582402 0.029242 -0.060013 153 0 76
-0.528012 0.018901 -0.014432 76 0 153
0.170039 -0.032436 -0.409666 76 0 153
-0.283406 -0.032436 -0.325388 76 0 153
0.413366 0.031903 -0.322065 76 0 153
-0.338372 0.033862 -0.559703 76 0 153
0.364978 -0.032436 -0.214375 76 0 153
0.075021 -0.032436 0.063524 76 0 153
-0.417206 -0.032436 0.289124 76 0 153
0.725340 -0.006028 0.580808 76 0 153
-0.683634 -0.032436 -0.268867 76 0 153
-0.032030 -0.032429 0.548392 76 0 153
0.719676 0.030143 0.551827 76 0 153
0.866709 0.021467 -0.302478 76 0 153
-0.426139 -0.032436 -0.445891 76 0 153
0.638425 -0.032436 -0.061116 76 0 153
-0.129702 0.016221 -0.542043 76 0 153
-0.312733 -0.032436 0.518474 76 0 153
0.592204 0.029242 -0.033702 153 0 76
-0.725863 0.029242 -0.161906 153 0 76
-0.195416 0.031903 -0.346861 76 0 153
0.220815 0.018901 -0.213165 76 0 153
0.203989 0.031903 0.511319 76 0 153
-0.324214 -0.032436 -0.091999 76 0 153
0.849129 0.031687 -0.079966 76 0 153
-0.513070 -0.032436 -0.065561 76 0 153
-0.784764 0.006580 -0.542043 76 0 153
0.577350 -0.032436 0.160970 76 0 153
-0.796034 0.031903 -0.526274 76 0 153
-0.354662 0.029242 0.134991 153 76 0
0.783037 0.022476 -0.040194 76 0 153
-0.645860 0.024840 -0.240724 76 0 153
0.225214 -0.003617 0.580808 76 0 153
-0.400717 -0.032436 0.020090 76 0 153
-0.088480 -0.032436 0.171239 76 0 153
-0.444469 -0.032436 0.102356 76 0 153
0.398769 0.025931 -0.542043 76 0 153
0.672278 0.018901 -0.004273 76 0 153
-0.348049 -0.032436 -0.286629 76 0 153
-0.198121 0.031903 -0.526893 76 0 153
0.746507 -0.032436 0.321977 76 0 153
0.848134 -0.025391 -0.169319 76 0 153
-0.478197 0.031903 0.319220 76 0 153
0.151165 0.021396 0.122150 153 76 0
-0.277163 0.031903 -0.436466 76 0 153
0.203761 -0.032436 -0.177980 76 0 153
-0.237983 -0.032436 -0.258698 76 0 153
-0.145560 0.031903 0.474078 76 0 153
0.159757 -0.032436 -0.349152 76 0 153
-0.110323 0.031903 -0.333616 76 0 153
-0.477079 0.031903 -0.260617 76 0 153
-0.839986 0.027426 -0.233565 76 0 153
-0.646179 -0.032436 -0.112110 76 0 153
-0.101485 0.031903 0.291617 76 0 153
0.764904 0.029242 0.170446 127 127 0
0.740140 0.018901 -0.007827 76 0 153
0.539297 0.017285 -0.562534 76 0 153
0.000291 0.029242 0.170786 76 0 153
-0.379734 -0.027874 -0.555459 76 0 153
0.013251 0.029242 -0.025583 76 153 0
-0.754590 -0.032436 -0.309225 76 0 153
-0.531224 0.030771 0.549027 76 0 153
0.769295 -0.019509 -0.557368 76 0 153
0.075686 -0.032436 -0.133253 76 0 153
0.219312 0.029242 -0.174180 127 127 0
0.652999 -0.010906 -0.542043 76 0 153
0.023862 0.018901 0.051884 76 0 153
-0.803672 -0.031996 0.060792 76 0 153
-0.765612 -0.032436 0.284654 76 0 153
0.500600 0.018901 0.093603 76 0 153
-0.280854 0.031903 -0.265140 76 0 153
-0.517164 -0.032417 0.571101 76 0 153
0.086098 0.018901 0.191768 76 0 153
-0.152270 0.027818 0.392006 76 0 153
-0.154472 0.026008 0.563914 76 0 153
-0.373051 -0.032436 0.264448 76 0 153
0.604063 0.020109 -0.230050 76 0 153
0.641376 0.018901 0.135593 76 0 153
-0.266337 -0.032436 -0.302423 76 0 153
0.512549 -0.032436 0.199566 76 0 153
0.409175 0.029242 0.251924 127 127 0
-0.779172 0.019156 -0.376998 76 0 153
-0.683178 0.029242 -0.086534 153 76 0
-0.514502 -0.032436 0.184111 76 0 153
-0.645222 0.018901 0.054160 76 0 153
-0.586792 0.028531 0.557644 76 0 153
-0.166602 -0.032436 -0.517559 76 0 153
-0.105919 -0.032436 -0.233085 76 0 153
-0.212053 -0.032436 -0.324371 76 0 153
0.160048 0.031903 -0.273623 76 0 153
-0.078313 0.035074 -0.556630 76 0 153
0.034791 -0.008287 -0.542043 76 0 153
0.182879 -0.032436 -0.502310 76 0 153
0.596657 0.029242 0.070421 153 0 76
-0.511815 0.009155 -0.542043 76 0 153
-0.473213 -0.032436 -0.538321 76 0 153
-0.666747 -0.023506 0.578825 76 0 153
0.058585 -0.032436 0.384341 76 0 153
0.554947 -0.032436 0.347971 76 0 153
0.499981 -0.032436 0.220953 76 0 153
-0.762134 0.022107 -0.132506 76 0 153
0.565256 0.016022 0.508925 76 0 153
0.817105 -0.032436 0.244598 76 0 153
-0.803780 -0.031983 0.368785 76 0 153
-0.811566 0.021852 0.571038 76 0 153
0.626498 -0.032436 -0.037543 76 0 153
0.293041 -0.032436 0.494962 76 0 153
-0.569386 -0.032436 -0.331597 76 0 153
-0.105869 0.030317 -0.544822 76 0 153
-0.514120 0.031903 0.469377 76 0 153
0.836570 -0.029865 0.064987 76 0 153
-0.805011 0.031903 0.483024 76 0 153
0.304145 -0.032436 0.054795 76 0 153
0.421597 -0.032436 0.055842 76 0 153
-0.688323 0.031903 0.305605 76 0 153
0.447318 0.023912 0.093757 76 0 153
0.319492 0.031903 0.462583 76 0 153
-0.433132 0.029242 0.014314 153 0 76
0.121879 -0.032436 -0.119892 76 0 153
0.543629 0.023238 -0.237109 76 0 153
0.833981 -0.030584 -0.087055 76 0 153
-0.083143 -0.032436 0.015065 76 0 153
-0.234218 0.015760 -0.560977 76 0 153
0.305144 0.029242 -0.181541 0 127 127
-0.545099 -0.032436 0.206492 76 0 153
0.493943 -0.032436 -0.234928 76 0 153
0.842663 -0.027838 0.524956 76 0 153
-0.717706 0.031903 0.450412 76 0 153
-0.273239 -0.020581 0.580808 76 0 153
-0.014787 -0.032436 0.012309 76 0 153
0.822254 0.031903 0.136224 76 0 153
0.443788 -0.032436 -0.097474 76 0 153
0.389452 0.031903 -0.288491 76 0 153
0.783918 0.022773 -0.106861 76 0 153
-0.502917 -0.032436 0.513068 76 0 153
0.775942 0.031903 -0.279979 76 0 153
-0.016673 -0.032436 0.215919 76 0 153
0.160124 0.018901 -0.012220 76 0 153
-0.404790 -0.032436 -0.005169 76 0 153
-0.684591 -0.032436 0.145087 76 0 153
0.293102 0.031903 -0.308663 76 0 153
0.826837 0.031903 0.421551 76 0 153
-0.368139 0.031903 0.446346 76 0 153
-0.016174 0.031903 0.511160 76 0 153
0.474265 0.031891 0.536667 76 0 153
-0.001516 -0.032436 0.067109 76 0 153
-0.158143 -0.015600 0.580808 76 0 153
-0.290715 0.019106 0.080467 76 0 153
0.289329 0.026831 -0.365189 76 0 153
0.855022 0.029790 0.222697 76 0 153
-0.666987 0.018901 0.223924 76 0 153
0.473374 0.029242 0.017466 204 51 127
0.563106 -0.032436 -0.421966 76 0 153
0.693143 0.003830 0.581440 76 0 153
-0.190953 -0.032436 0.115905 76 0 153
-0.155882 0.018901 -0.162403 76 0 153
0.384988 0.001534 0.581234 76 0 153
-0.418743 -0.032436 -0.498251 76 0 153
-0.587227 0.031903 -0.437038 76 0 153
-0.163615 0.031903 -0.275211 76 0 153
-0.086813 0.031903 0.324400 76 0 153
0.851131 -0.023728 0.118770 76 0 153
0.668191 0.031903 -0.315948 76 0 153
0.268869 -0.032436 0.243701 76 0 153
-0.659710 0.030346 -0.542043 76 0 153
-0.004210 -0.032436 -0.397136 76 0 153
0.862960 -0.012824 0.178912 76 0 153
-0.808669 -0.031177 0.087025 76 0 153
0.407654 -0.032436 -0.213782 76 0 153
0.525655 0.031903 0.529761 76 0 153
0.304822 -0.014965 -0.552552 76 0 153
0.122238 -0.030513 -0.551326 76 0 153
0.736856 0.016492 -0.561926 76 0 153
-0.688121 0.029242 0.182161 0 127 127
-0.523147 0.031903 -0.423547 76 0 153
-0.564133 -0.032421 0.563934 76 0 153
0.739503 0.031903 0.289892 76 0 153
-0.634474 -0.032436 0.502500 76 0 153
0.039147 0.029242 -0.185470 0 0 255
-0.702957 -0.032436 -0.395018 76 0 153
-0.158984 -0.032436 -0.170541 76 0 153
-0.650427 -0.032436 -0.533155 76 0 153
0.481205 0.022881 0.154745 0 0 255
-0.611811 -0.032436 -0.238294 76 0 153
-0.132249 -0.032436 -0.344463 76 0 153
0.843738 0.031903 -0.231242 76 0 153
0.210824 0.018901 0.058355 76 0 153
-0.833386 0.029550 -0.506620 76 0 153
0.445852 -0.032436 -0.281741 76 0 153
-0.692532 -0.032436 0.262531 76 0 153
-0.111078 -0.032436 -0.290358 76 0 153
0.536039 0.018901 0.187682 76 0 153
0.635186 -0.032436 0.527697 76 0 153
0.010777 -0.032436 0.270822 76 0 153
0.866709 0.000123 -0.315288 76 0 153
-0.292903 -0.032436 -0.368836 76 0 153
0.324351 -0.032436 0.042763 76 0 153
0.799033 -0.032436 0.464478 76 0 153
0.816015 0.031903 -0.013540 76 0 153
0.507001 -0.032436 -0.212635 76 0 153
-0.208768 0.029242 0.110403 76 153 0
0.318869 -0.032436 -0.380791 76 0 153
0.551223 -0.032436 -0.036173 76 0 153
-0.200478 0.028113 0.341393 76 0 153
0.302301 0.025971 0.152662 76 153 0
-0.737495 0.027303 -0.364755 76 0 153
-0.723677 -0.032436 0.464184 76 0 153
0.424224 -0.022115 -0.558082 76 0 153
-0.182908 0.031664 0.541693 76 0 153
-0.655287 -0.032436 0.185511 76 0 153
-0.088184 0.018901 0.014466 76 0 153
-0.303896 0.018901 0.136988 76 0 153
-0.614158 0.029242 -0.120585 76 0 153
0.738134 -0.032436 -0.240863 76 0 153
0.612814 0.031903 0.396009 76 0 153
-0.201418 0.019305 -0.151392 76 0 153
-0.043498 -0.032436 -0.178505 76 0 153
0.174301 0.030352 0.550941 76 0 153
-0.513625 -0.032436 -0.466633 76 0 153
-0.595932 -0.032436 0.461305 76 0 153
-0.267700 -0.032436 0.531722 76 0 153
0.307189 -0.032436 -0.068998 76 0 153
-0.270308 -0.032436 0.312312 76 0 153
-0.160193 0.021390 -0.564762 76 0 153
-0.188393 -0.032436 -0.096024 76 0 153
0.744955 -0.032436 0.273203 76 0 153
0.070188 -0.032436 -0.493173 76 0 153
-0.224110 -0.032436 -0.031649 76 0 153
-0.235160 -0.032436 0.464752 76 0 153
0.125866 -0.032436 0.354158 76 0 153
-0.614655 -0.032436 -0.522199 76 0 153
0.774910 0.031903 0.284453 76 0 153
0.368240 0.018901 -0.175303 76 0 153
0.820663 0.031903 -0.531371 76 0 153
-0.484737 0.026236 -0.365679 76 0 153
-0.514959 0.020901 -0.145224 153 0 76
-0.578696 0.018679 -0.380719 76 0 153
0.511522 -0.032436 0.080453 76 0 153
0.750471 0.018901 -0.075482 76 0 153
-0.751910 0.018901 0.052665 76 0 153
0.275345 -0.032436 0.204091 76 0 153
-0.719547 0.018901 0.024304 76 0 153
0.042103 0.029242 -0.155918 0 0 255
-0.417033 0.018690 -0.380584 76 0 153
0.407599 -0.032436 0.079532 76 0 153
-0.384534 0.031903 -0.463790 76 0 153
-0.670205 0.029242 0.032382 127 127 0
0.001052 0.031903 -0.517908 76 0 153
0.256008 -0.032436 -0.053202 76 0 153
-0.335045 -0.032436 0.180955 76 0 153
0.179058 -0.032436 0.329358 76 0 153
-0.167433 0.027993 0.374340 76 0 153
-0.783623 0.031903 0.380825 76 0 153
-0.443902 0.024453 -0.079107 76 153 0
-0.194204 0.028852 -0.066796 127 127 0
-0.509749 -0.032436 0.329258 76 0 153
0.031177 -0.032436 -0.191672 76 0 153
-0.006566 0.031903 0.535285 76 0 153
-0.018274 0.031903 0.431120 76 0 153
-0.404666 0.023123 0.230457 76 0 153
0.085417 -0.032436 -0.403171 76 0 153
-0.409635 0.028113 0.325779 76 0 153
0.810961 0.031903 -0.404442 76 0 153
0.326759 0.018901 0.193973 76 0 153
0.624931 0.018901 0.039588 76 0 153
-0.115861 0.031903 0.362072 76 0 153
0.060414 -0.032436 0.026722 76 0 153
-0.314309 -0.032436 0.423297 76 0 153
0.473986 0.029242 -0.182286 153 0 76
-0.585279 -0.032436 -0.386106 76 0 153
0.173463 -0.032436 0.455737 76 0 153
-0.555698 0.031903 -0.292324 76 0 153
-0.623010 -0.032436 -0.197931 76 0 153
-0.499917 0.029242 -0.128406 76 153 0
-0.464588 -0.032436 -0.412271 76 0 153
0.799370 -0.032436 0.063764 76 0 153
0.335922 0.018901 -0.013526 76 0 153
0.225406 0.031903 -0.409309 76 0 153
-0.825115 0.028739 -0.553629 76 0 153
-0.844327 0.012453 -0.041704 76 0 153
-0.474198 0.031903 0.444768 76 0 153
0.719551 0.018901 0.122083 76 0 153
-0.787463 -0.032436 -0.252826 76 0 153
0.560757 0.021649 0.233878 0 127 127
-0.162894 0.031903 -0.486478 76 0 153
0.058596 0.030563 -0.372365 76 0 153
0.791704 0.031903 -0.486649 76 0 153
-0.840730 -0.012612 -0.014940 76 0 153
0.233412 0.029242 0.023000 76 0 153
-0.667431 -0.032436 -0.478719 76 0 153
-0.136390 0.030442 0.327646 76 0 153
-0.209323 0.028113 0.368343 76 0 153
0.693541 0.031308 -0.542043 76 0 153
0.465979 0.018901 -0.156291 76 0 153
-0.095556 0.031903 -0.435611 76 0 153
-0.017761 0.031903 -0.341102 76 0 153
-0.720733 -0.032436 -0.426616 76 0 153
0.581030 0.020527 0.161952 0 127 127
-0.056748 -0.032436 -0.307850 76 0 153
0.758943 -0.032436 -0.442445 76 0 153
-0.004144 -0.032436 -0.291010 76 0 153
-0.255513 -0.032436 0.258697 76 0 153
0.449227 -0.024142 -0.557793 76 0 153
-0.468326 -0.032436 -0.169561 76 0 153
-0.507079 0.031903 -0.537336 76 0 153
0.077158 0.018901 0.258224 76 0 153
0.710156 0.018901 0.037862 76 0 153
-0.067831 0.031903 0.507616 76 0 153
0.794789 -0.032436 -0.319641 76 0 153
-0.483011 -0.016126 0.580808 76 0 153
0.381613 0.029242 -0.037573 76 0 153
-0.028654 -0.032436 -0.385190 76 0 153
-0.524007 0.029242 0.134538 0 0 255
-0.709789 0.031903 -0.491794 76 0 153
0.198445 -0.032436 0.405096 76 0 153
0.467946 0.023027 0.198486 0 127 127
0.215184 -0.032436 -0.042856 76 0 153
-0.231950 0.020283 0.572860 76 0 153
0.816712 -0.032436 0.437094 76 0 153
0.026074 0.031903 -0.280098 76 0 153
-0.767832 0.024033 0.000167 76 0 153
-0.529963 0.018901 -0.105559 76 0 153
0.741032 -0.032434 0.540813 76 0 153
-0.754801 -0.032436 -0.530088 76 0 153
0.652155 -0.032436 -0.087487 76 0 153
-0.655961 -0.032436 -0.211474 76 0 153
-0.744555 0.018901 0.135089 76 0 153
-0.628513 0.018901 0.130513 76 0 153
0.148394 0.031903 0.401451 76 0 153
0.121583 0.031903 0.368597 76 0 153
-0.520681 0.018901 0.057633 76 0 153
-0.688293 0.020439 0.261960 76 0 153
-0.777263 0.031903 0.426329 76 0 153
0.383151 0.030077 0.552104 76 0 153
-0.844327 0.015024 0.283189 76 0 153
0.677992 0.024275 -0.370225 76 0 153
0.704887 0.029242 0.104621 127 127 0
0.568608 -0.032436 -0.279170 76 0 153
0.326614 0.031903 0.338986 76 0 153
0.113177 0.031903 -0.277635 76 0 153
-0.111016 0.030375 0.550844 76 0 153
0.542512 -0.032436 -0.172692 76 0 153
0.233385 0.031903 -0.256748 76 0 153
0.346303 -0.032436 0.187831 76 0 153
-0.557250 0.031903 0.296584 76 0 153
0.149178 0.029242 -0.168032 0 255 0
-0.606588 0.030124 -0.361511 76 0 153
0.549267 0.031903 0.358375 76 0 153
-0.773579 0.025975 -0.087028 76 0 153
0.353482 0.031903 0.307226 76 0 153
0.603093 0.018901 -0.119503 76 0 153
0.138597 -0.032436 -0.446019 76 0 153
0.004613 0.031903 0.435339 76 0 153
-0.434332 -0.032436 -0.238305 76 0 153
0.851598 -0.023433 -0.028835 76 0 153
0.783394 -0.032436 0.303746 76 0 153
0.790343 -0.032436 0.440281 76 0 153
0.590713 -0.032436 -0.130652 76 0 153
-0.370374 0.031903 -0.283860 76 0 153
-0.844268 -0.001606 0.320083 76 0 153
-0.449241 -0.032436 -0.455559 76 0 153
0.476903 0.031903 0.472563 76 0 153
0.676364 -0.032436 0.323404 76 0 153
-0.420994 -0.011791 -0.542043 76 0 153
-0.762221 -0.032436 -0.498458 76 0 153
-0.417654 -0.032436 -0.166460 76 0 153
0.113287 0.018901 0.222741 76 0 153
0.164850 -0.012525 -0.542849 76 0 153
-0.079065 -0.007354 -0.542043 76 0 153
-0.038935 0.017723 0.575553 76 0 153
-0.231899 -0.005489 0.580808 76 0 153
0.545631 0.018901 0.026140 76 0 153
-0.004865 -0.032436 -0.161892 76 0 153
0.002960 -0.032436 0.133799 76 0 153
-0.429686 0.031772 -0.549860 76 0 153
-0.113443 -0.032436 -0.410266 76 0 153
-0.665610 -0.032436 -0.367698 76 0 153
0.133290 -0.032436 0.197860 76 0 153
-0.188773 0.031903 -0.442763 76 0 153
-0.497289 -0.032436 0.369814 76 0 153
0.061893 -0.032436 0.533242 76 0 153
0.534021 -0.032436 0.114212 76 0 153
0.506389 -0.032436 -0.500187 76 0 153
-0.640589 -0.032436 0.153616 76 0 153
-0.014074 0.018901 0.247963 76 0 153
0.819010 0.031903 -0.143505 76 0 153
0.787969 -0.032436 -0.411449 76 0 153
0.442090 -0.032436 0.043323 76 0 153
0.573182 -0.032436 -0.468173 76 0 153
-0.820023 0.031903 0.046048 76 0 153
-0.161506 -0.032436 -0.294488 76 0 153
0.272672 -0.032436 -0.409867 76 0 153
0.796434 0.027003 0.027227 76 0 153
0.815619 -0.032436 0.161866 76 0 153
-0.578655 0.031903 0.379613 76 0 153
-0.325615 0.031903 -0.277784 76 0 153
0.731643 -0.032436 0.188958 76 0 153
-0.363055 0.031903 0.513622 76 0 153
0.834455 -0.030474 0.363157 76 0 153
0.468123 0.026029 -0.089001 76 153 0
-0.502075 0.031903 0.395447 76 0 153
-0.593767 0.031903 0.468355 76 0 153
0.408215 -0.032436 -0.304708 76 0 153
0.216517 -0.032436 0.232065 76 0 153
-0.217871 -0.032436 -0.523117 76 0 153
0.761099 0.031903 0.479591 76 0 153
-0.249806 -0.032436 -0.059930 76 0 153
-0.440425 0.031903 0.454004 76 0 153
-0.146933 -0.032436 -0.384703 76 0 153
0.520646 -0.032436 -0.371207 76 0 153
0.480808 -0.032436 -0.182663 76 0 153
-0.068829 0.031903 -0.536057 76 0 153
-0.699434 0.001824 -0.542043 76 0 153
-0.025969 0.018901 -0.003368 76 0 153
-0.342902 0.018901 -0.033843 76 0 153
-0.133154 0.023629 -0.172538 153 0 76
-0.399380 0.018901 -0.111734 76 0 153
0.198342 0.029242 0.218073 204 51 127
-0.777736 -0.032436 0.050629 76 0 153
0.702700 0.031903 -0.355624 76 0 153
0.102433 0.031903 -0.415987 76 0 153
0.748797 0.029242 -0.040875 153 76 0
-0.339829 -0.032436 -0.059086 76 0 153
0.353886 -0.021325 0.580653 76 0 153
0.529766 -0.032436 0.532334 76 0 153
0.078822 -0.032423 0.559954 76 0 153
-0.524301 -0.032436 -0.515032 76 0 153
-0.459998 -0.032436 -0.055269 76 0 153
0.598039 -0.032436 -0.340457 76 0 153
-0.357704 0.018901 0.230368 76 0 153
-0.181268 -0.032436 -0.009418 76 0 153
0.040729 0.031903 -0.523114 76 0 153
0.866709 0.008177 0.461721 76 0 153
0.230044 -0.032436 -0.521722 76 0 153
0.066113 0.029242 -0.126248 153 76 0
0.813361 -0.032436 0.288231 76 0 153
0.498118 0.028346 0.279801 76 0 153
0.856056 0.029457 0.351498 76 0 153
0.570226 -0.032436 -0.392438 76 0 153
-0.333002 -0.032421 0.563651 76 0 153
-0.247458 0.018901 -0.164016 76 0 153
-0.359560 -0.032436 0.143667 76 0 153
-0.086916 0.029242 0.197709 153 76 0
-0.383372 -0.032436 0.068233 76 0 153
0.822977 0.031903 0.253086 76 0 153
-0.730831 -0.032436 0.251029 76 0 153
0.294901 -0.032436 -0.255316 76 0 153
0.015057 -0.032436 -0.302944 76 0 153
-0.025335 -0.032436 0.142251 76 0 153
-0.741942 -0.032436 -0.253191 76 0 153
0.517396 0.031903 0.373858 76 0 153
0.219807 -0.032436 -0.314096 76 0 153
0.622552 -0.032436 -0.258023 76 0 153
0.784849 -0.011779 -0.542043 76 0 153
-0.091900 -0.032436 -0.464174 76 0 153
0.192535 0.018901 -0.166699 76 0 153
-0.785514 -0.032436 -0.503112 76 0 153
0.657898 0.031903 0.301050 76 0 153
-0.796867 0.031903 -0.263246 76 0 153
0.388619 0.020757 0.156252 76 153 0
-0.077168 0.029811 0.553231 76 0 153
0.071375 0.018901 -0.214329 76 0 153
0.767186 0.031903 -0.416134 76 0 153
-0.691249 0.029242 -0.007309 76 0 153
0.427834 0.018901 -0.011053 76 0 153
-0.759568 -0.032436 -0.054589 76 0 153
0.386637 0.018901 0.087890 76 0 153
-0.416626 -0.002705 0.580808 76 0 153
-0.643360 0.029242 -0.090884 76 0 153
0.428611 -0.032436 -0.494057 76 0 153
-0.392518 0.028113 0.356064 76 0 153
-0.204627 0.029434 -0.251090 76 0 153
-0.233245 0.029242 -0.062551 127 127 0
-0.142476 -0.032436 0.387974 76 0 153
0.327824 -0.032417 0.570729 76 0 153
-0.493166 -0.032436 0.533376 76 0 153
-0.633896 -0.032436 0.445464 76 0 153
-0.377211 0.021218 0.263717 76 0 153
-0.295774 0.018901 0.036550 76 0 153
-0.340192 -0.032436 -0.178320 76 0 153
0.192418 -0.032431 0.545413 76 0 153
-0.826564 0.031746 -0.014979 76 0 153
-0.295561 -0.032436 0.189865 76 0 153
0.866439 -0.003804 0.216926 76 0 153
-0.569687 0.018901 0.010968 76 0 153
-0.310805 0.027837 -0.039414 0 255 0
0.562346 0.028099 0.150520 255 0 0
0.754157 -0.032436 -0.049525 76 0 153
-0.396397 -0.032436 0.107456 76 0 153
-0.439915 -0.032436 0.417047 76 0 153
-0.358817 -0.032436 0.446603 76 0 153
0.099729 0.031903 0.424884 76 0 153
-0.041850 -0.032418 0.569218 76 0 153
0.656734 0.018901 -0.162687 76 0 153
0.573002 -0.010782 0.580808 76 0 153
0.498604 0.018901 0.224416 76 0 153
-0.814258 0.031903 -0.102563 76 0 153
0.429654 0.018901 0.077107 76 0 153
0.825860 0.031903 -0.275849 76 0 153
-0.260449 0.031903 0.454581 76 0 153
-0.320876 0.029242 0.056804 76 0 153
-0.003174 0.018901 -0.211166 76 0 153
0.139849 0.024692 0.271557 76 0 153
0.011594 0.018901 0.250010 76 0 153
0.222079 0.029474 0.554659 76 0 153
0.448582 0.023912 0.182079 76 0 153
0.514498 0.027879 0.559525 76 0 153
-0.811389 -0.030627 -0.102597 76 0 153
0.638430 0.012856 -0.542043 76 0 153
0.796999 0.027194 -0.152807 76 0 153
-0.575892 -0.032436 -0.227433 76 0 153
0.260356 -0.032436 0.170835 76 0 153
-0.811342 -0.030636 0.233682 76 0 153
-0.056401 0.031903 0.427393 76 0 153
-0.367551 -0.032436 -0.075937 76 0 153
-0.130296 -0.032436 0.015055 76 0 153
0.183472 0.029242 0.038111 76 0 153
0.756637 0.014040 -0.550174 76 0 153
0.825630 0.010386 0.580224 76 0 153
-0.370214 -0.000828 0.580835 76 0 153
-0.701812 -0.032436 0.219927 76 0 153
-0.250985 -0.032436 0.152530 76 0 153
-0.617181 -0.032436 0.094871 76 0 153
-0.507549 0.014899 0.517401 76 0 153
-0.063879 0.018901 0.205417 76 0 153
0.701257 -0.032436 0.273514 76 0 153
-0.270616 0.024604 0.271358 76 0 153
-0.565668 -0.032436 0.501732 76 0 153
0.076474 -0.032436 -0.228957 76 0 153
-0.084753 -0.032436 0.126040 76 0 153
-0.713255 -0.032424 0.558769 76 0 153
0.375693 0.015981 -0.546891 76 0 153
0.719199 0.020607 -0.069345 153 76 0
-0.560317 -0.032436 0.531477 76 0 153
-0.494357 0.018901 0.136150 76 0 153
0.846124 0.031903 -0.036293 76 0 153
-0.300073 0.031903 -0.309771 76 0 153
0.228017 0.031903 -0.445495 76 0 153
-0.194209 -0.032436 -0.278719 76 0 153
-0.024111 0.029242 0.219941 153 76 0
0.023804 0.029242 -0.139315 76 0 153
-0.288313 0.029242 -0.029862 0 255 0
-0.833714 -0.020253 -0.519825 76 0 153
-0.059919 0.031903 -0.327501 76 0 153
-0.204583 0.031903 -0.504309 76 0 153
-0.766721 -0.032436 0.467034 76 0 153
-0.471565 0.018901 -0.097405 76 0 153
-0.091521 0.029242 0.037275 127 127 0
0.593755 0.031903 -0.415498 76 0 153
0.619568 0.031903 0.482894 76 0 153
-0.467115 -0.032436 0.490729 76 0 153
0.427772 -0.032436 0.185396 76 0 153
0.866709 0.025628 0.023978 76 0 153
0.714270 0.018758 0.574630 76 0 153
-0.802752 -0.032090 0.571071 76 0 153
0.013693 0.029242 0.220150 76 0 153
-0.814942 0.031903 0.155908 76 0 153
-0.724853 0.031903 0.377932 76 0 153
0.853207 -0.022419 -0.533220 76 0 153
0.752321 0.029242 -0.096043 0 255 0
-0.558889 -0.032436 -0.159675 76 0 153
0.528001 -0.032436 -0.489483 76 0 153
-0.041787 0.031903 0.329372 76 0 153
0.192352 0.029242 0.140802 153 76 0
-0.728442 0.031903 0.491450 76 0 153
-0.324402 -0.032436 0.277743 76 0 153
-0.180243 -0.032436 0.178878 76 0 153
0.393480 0.031903 0.479537 76 0 153
-0.844327 0.011166 -0.322108 76 0 153
0.308909 0.029309 0.555358 76 0 153
-0.637034 0.029242 -0.156242 0 127 127
0.179342 -0.032436 -0.170404 76 0 153
0.423621 -0.032436 0.474048 76 0 153
0.668636 -0.032436 0.395775 76 0 153
-0.678363 -0.032436 0.520098 76 0 153
-0.386149 -0.032436 -0.228950 76 0 153
-0.126580 -0.032436 0.476806 76 0 153
-0.326406 0.031903 -0.458293 76 0 153
0.060697 0.029242 -0.026388 76 153 0
-0.636131 -0.032436 0.367443 76 0 153
0.218128 -0.032436 -0.259667 76 0 153
0.818760 0.031903 0.194594 76 0 153
-0.319920 0.024172 -0.542043 76 0 153
-0.534592 -0.032436 0.138361 76 0 153
0.506803 -0.032436 -0.079332 76 0 153
-0.760099 0.031903 -0.292827 76 0 153
-0.825912 0.031903 0.446312 76 0 153
0.248036 -0.032436 -0.017119 76 0 153
0.317896 0.018651 -0.381077 76 0 153
-0.005917 0.031903 -0.270921 76 0 153
-0.711246 0.018901 -0.042493 76 0 153
0.500492 -0.032436 0.155209 76 0 153
-0.081586 -0.032436 0.208778 76 0 153
0.822435 -0.032436 0.415182 76 0 153
0.246588 -0.032436 -0.100384 76 0 153
0.059245 -0.032436 0.302843 76 0 153
-0.222144 0.029242 -0.032894 127 127 0
0.600592 0.018901 0.006359 76 0 153
-0.177314 0.026930 0.227212 153 76 0
-0.112798 -0.032436 -0.064816 76 0 153
-0.458801 0.016294 -0.542043 76 0 153
-0.500091 -0.032436 0.229149 76 0 153
0.745587 0.031903 0.398536 76 0 153
-0.414117 0.031903 -0.274186 76 0 153
0.138579 0.023744 0.162279 153 0 76
0.537915 0.018901 -0.023629 76 0 153
0.763821 -0.032436 0.146154 76 0 153
0.402373 0.031903 -0.405925 76 0 153
0.455366 0.018901 0.037632 76 0 153
-0.313313 -0.032436 0.176616 76 0 153
-0.134083 -0.032436 0.278179 76 0 153
0.839446 0.031903 -0.452577 76 0 153
0.501920 -0.031170 -0.549812 76 0 153
0.817746 0.031903 -0.445059 76 0 153
0.865774 0.026329 0.404068 76 0 153
0.197873 0.013281 -0.553719 76 0 153
-0.537634 -0.032436 0.363154 76 0 153
-0.132719 0.029242 0.141700 0 127 127
0.312818 -0.032436 0.234896 76 0 153
-0.630124 0.031903 0.311907 76 0 153
0.765912 -0.032436 0.476544 76 0 153
-0.362875 -0.032436 0.211142 76 0 153
-0.771784 -0.032436 0.114575 76 0 153
-0.790980 -0.032436 0.479650 76 0 153
0.833397 -0.030702 -0.218829 76 0 153
0.713415 0.020424 0.078461 153 76 0
0.558031 0.031903 0.405172 76 0 153
-0.019004 0.018901 0.050716 76 0 153
-0.410666 0.018901 0.118657 76 0 153
-0.506646 -0.032436 0.469990 76 0 153
0.553338 0.031903 -0.442039 76 0 153
0.166272 -0.032436 0.120955 76 0 153
0.866709 0.003054 -0.379687 76 0 153
-0.582653 0.031903 -0.504866 76 0 153
-0.367213 0.018901 -0.099641 76 0 153
0.722727 0.031903 -0.290204 76 0 153
0.699027 -0.032436 -0.505802 76 0 153
-0.835126 0.028990 -0.453348 76 0 153
-0.832562 -0.021178 0.534027 76 0 153
0.203300 0.026156 0.274858 76 0 153
-0.168090 0.031903 0.519237 76 0 153
0.166058 0.018901 -0.042274 76 0 153
-0.606684 0.020111 -0.542043 76 0 153
0.376213 0.018901 -0.067426 76 0 153
0.291545 0.029242 0.038614 153 0 76
-0.132439 0.026222 0.563465 76 0 153
-0.808986 0.031903 0.527570 76 0 153
0.116154 -0.032436 -0.487656 76 0 153
0.718670 -0.032436 -0.405762 76 0 153
-0.604582 -0.031026 0.572522 76 0 153
-0.302916 0.031903 -0.277059 76 0 153
0.866709 0.010300 -0.167960 76 0 153
0.670634 0.018901 0.069051 76 0 153
-0.450868 -0.032436 0.167839 76 0 153
-0.381405 0.031903 -0.406784 76 0 153
0.640923 -0.032436 -0.426399 76 0 153
0.280521 -0.032436 0.044832 76 0 153
-0.148007 0.030294 -0.361316 76 0 153
0.005623 0.029242 -0.086352 76 0 153
-0.606527 -0.032436 0.127773 76 0 153
0.773860 0.031358 -0.561876 76 0 153
0.064095 0.031903 -0.264319 76 0 153
-0.512803 0.018901 -0.051139 76 0 153
-0.433820 -0.032436 -0.339105 76 0 153
0.622441 0.023997 0.009331 76 0 153
-0.090607 0.031903 -0.521871 76 0 153
-0.004437 -0.032436 -0.010026 76 0 153
0.305954 0.029242 0.227613 0 255 0
-0.370242 -0.032436 -0.285581 76 0 153
-0.493539 -0.032436 -0.381843 76 0 153
-0.536893 -0.032436 0.087964 76 0 153
0.733618 0.018901 -0.181939 76 0 153
-0.437576 0.018901 -0.172404 76 0 153
-0.783371 0.029284 -0.177673 76 0 153
0.520926 0.018901 0.026209 76 0 153
0.563358 -0.032436 -0.161265 76 0 153
-0.555092 -0.032436 0.465075 76 0 153
-0.227482 -0.032436 0.514948 76 0 153
-0.180362 -0.032436 0.236266 76 0 153
0.182339 -0.032436 -0.217273 76 0 153
0.833241 -0.030734 -0.527824 76 0 153
-0.332505 0.018901 0.235853 76 0 153
0.490292 -0.032436 0.240658 76 0 153
-0.154399 0.018901 0.065524 76 0 153
-0.538120 0.035303 -0.553264 76 0 153
-0.248369 -0.032436 -0.511599 76 0 153
-0.564169 -0.032436 0.302360 76 0 153
0.785607 -0.032436 0.042996 76 0 153
0.620284 0.018901 -0.187580 76 0 153
0.688729 -0.032429 0.549278 76 0 153
0.575663 0.002583 -0.542043 76 0 153
-0.205837 -0.032436 0.264782 76 0 153
-0.064288 0.018901 -0.054560 76 0 153
0.400667 -0.032420 0.566701 76 0 153
-0.614399 0.031903 -0.275220 76 0 153
-0.048759 -0.032436 -0.019647 76 0 153
0.305275 -0.032436 -0.148972 76 0 153
-0.585614 -0.032436 0.310976 76 0 153
0.335285 -0.032436 -0.076720 76 0 153
-0.316719 -0.032436 -0.416995 76 0 153
0.379702 -0.032436 -0.071844 76 0 153
-0.739879 -0.032436 -0.437368 76 0 153
0.550447 0.018901 -0.003939 76 0 153
0.252602 -0.032436 -0.124794 76 0 153
0.377052 0.031903 0.368221 76 0 153
0.801609 0.028752 0.160295 76 0 153
-0.565914 -0.006940 0.580808 76 0 153
0.188913 -0.032436 0.271040 76 0 153
-0.123893 0.029242 0.039410 127 127 0
-0.684431 0.029242 -0.139478 153 76 0
0.418532 0.031903 0.299596 76 0 153
-0.086408 -0.032436 -0.155847 76 0 153
-0.517724 -0.032436 -0.037159 76 0 153
0.112446 0.031903 0.304681 76 0 153
-0.573273 -0.012485 -0.542360 76 0 153
-0.665367 -0.032436 0.263722 76 0 153
-0.384197 -0.032436 0.037782 76 0 153
-0.843893 -0.005015 -0.216786 76 0 153
0.102000 0.025442 -0.089357 153 76 0
-0.153928 0.031391 0.286671 76 0 153
-0.643141 -0.032436 0.269591 76 0 153
-0.546509 0.031903 -0.462244 76 0 153
-0.228191 -0.032436 -0.298628 76 0 153
-0.600958 -0.032436 0.180663 76 0 153
0.680148 -0.032436 -0.090600 76 0 153
-0.293899 0.028113 0.352136 76 0 153
0.566806 0.031903 -0.418797 76 0 153
0.640982 -0.032436 0.386350 76 0 153
-0.448424 -0.032436 -0.108049 76 0 153
-0.062008 0.027349 0.164010 153 76 0
-0.286654 0.018901 0.216346 76 0 153
-0.340460 -0.032436 0.258093 76 0 153
-0.568552 0.031903 0.316993 76 0 153
-0.716080 0.031903 -0.294926 76 0 153
0.486027 0.018901 -0.099270 76 0 153
-0.175957 -0.032436 -0.205657 76 0 153
0.724442 -0.032436 -0.005848 76 0 153
0.771126 -0.032436 0.125535 76 0 153
-0.465708 0.031903 -0.279242 76 0 153
0.228719 0.018901 -0.143206 76 0 153
0.301495 0.025288 0.275615 0 255 0
0.333296 0.018901 -0.059927 76 0 153
0.620087 0.018901 0.253390 76 0 153
-0.182556 0.029242 0.140293 76 153 0
0.585817 0.028046 -0.247957 76 0 153
0.372243 0.029242 -0.199699 127 0 127
-0.205031 -0.032436 -0.050085 76 0 153
-0.484958 0.018901 0.076725 76 0 153
0.522417 -0.032436 -0.003736 76 0 153
0.072852 0.013937 -0.557732 76 0 153
-0.454823 0.018901 0.239607 76 0 153
0.739492 0.024997 -0.542043 76 0 153
-0.170620 0.018901 -0.051180 76 0 153
0.413585 0.026934 -0.205449 127 0 127
-0.250271 0.028113 0.304692 76 0 153
0.257455 0.023624 -0.101772 153 0 76
0.562084 0.018901 -0.128770 76 0 153
-0.210539 -0.032436 0.463830 76 0 153
-0.000312 0.027534 -0.564646 76 0 153
-0.232754 -0.032436 -0.214853 76 0 153
-0.431587 -0.032436 -0.203630 76 0 153
0.341831 0.031903 -0.538453 76 0 153
-0.533666 0.025540 -0.242304 76 0 153
0.494887 0.031903 0.511880 76 0 153
-0.230689 -0.032436 -0.395725 76 0 153
-0.384754 0.020370 -0.230640 76 0 153
0.597843 -0.017790 0.580808 76 0 153
-0.301110 0.014154 -0.549899 76 0 153
-0.232471 0.031903 0.495807 76 0 153
0.639873 0.031903 0.351702 76 0 153
0.371220 -0.032436 -0.438560 76 0 153
0.189428 0.023105 -0.145257 153 0 76
-0.412247 -0.032436 0.409411 76 0 153
-0.190007 0.029242 -0.168244 153 0 76
0.278825 -0.032436 0.292639 76 0 153
-0.261021 0.023352 -0.203331 76 0 153
-0.237299 -0.032436 0.185253 76 0 153
0.050474 0.027390 -0.003703 76 153 0
-0.750752 0.031903 0.481547 76 0 153
-0.830149 0.030592 0.069558 76 0 153
-0.114223 0.018901 0.005504 76 0 153
-0.546765 0.018901 0.171142 76 0 153
-0.641483 0.020002 0.233616 0 127 127
0.359840 -0.032436 0.384997 76 0 153
0.241517 0.018901 0.092976 76 0 153
-0.364117 0.023324 0.059098 153 0 76
-0.192015 0.024360 0.270807 76 0 153
0.604839 -0.032436 -0.456497 76 0 153
0.078802 -0.032436 0.463987 76 0 153
-0.222377 0.029242 0.167071 153 76 0
0.225063 -0.032436 0.300541 76 0 153
-0.118746 -0.032436 0.103788 76 0 153
-0.808734 0.031903 -0.474405 76 0 153
0.260341 -0.032436 -0.156546 76 0 153
-0.218564 -0.032436 -0.178394 76 0 153
-0.725471 -0.032436 -0.382004 76 0 153
0.813056 0.031903 0.379212 76 0 153
-0.353338 -0.032436 0.513655 76 0 153
0.470985 -0.009444 -0.542043 76 0 153
-0.074493 0.031810 -0.383247 76 0 153
0.660427 -0.030719 -0.550893 76 0 153
-0.490772 0.029242 0.095722 0 0 255
-0.297768 -0.031878 0.571807 76 0 153
-0.172283 -0.032436 0.048329 76 0 153
-0.617437 0.031903 -0.513747 76 0 153
0.257293 0.028923 -0.399630 76 0 153
0.127473 0.031903 0.419062 76 0 153
0.068204 -0.032436 -0.102518 76 0 153
-0.429111 -0.032436 0.071664 76 0 153
-0.801925 0.031903 0.414893 76 0 153
0.610867 0.010214 0.580277 76 0 153
0.085393 -0.032436 0.119677 76 0 153
-0.789405 -0.032436 -0.426689 76 0 153
-0.804176 -0.031934 0.527063 76 0 153
0.302182 0.031903 0.441544 76 0 153
-0.337313 -0.032436 -0.223928 76 0 153
0.349022 0.029242 0.165575 0 0 255
-0.141000 0.028083 -0.204910 153 0 76
0.380991 0.031903 0.297560 76 0 153
0.625693 0.029242 -0.157060 0 0 255
0.735212 -0.032436 -0.344014 76 0 153
0.159630 0.018901 -0.134734 76 0 153
0.077530 0.018667 -0.381652 76 0 153
-0.282118 0.034313 -0.558684 76 0 153
0.562980 0.018901 -0.099839 76 0 153
-0.745983 -0.032436 -0.193558 76 0 153
0.701053 0.031903 -0.487134 76 0 153
0.699882 0.018901 -0.009259 76 0 153
-0.212318 0.018901 -0.016663 76 0 153
0.478581 -0.032436 -0.267422 76 0 153
0.721323 0.018901 0.178084 76 0 153
-0.475660 0.018901 0.125190 76 0 153
0.778719 0.021016 -0.127751 76 0 153
0.166130 0.018901 0.067928 76 0 153
0.017606 -0.032436 -0.529905 76 0 153
-0.406801 -0.032436 -0.049073 76 0 153
0.004949 -0.027474 0.575499 76 0 153
-0.804743 0.031903 -0.048575 76 0 153
0.342899 0.029242 -0.089962 76 153 0
-0.478615 -0.032436 0.243332 76 0 153
-0.713708 -0.032436 0.346593 76 0 153
0.157720 0.031903 0.462373 76 0 153
0.831495 -0.031087 0.319090 76 0 153
-0.545294 -0.032436 -0.125426 76 0 153
0.060329 -0.032436 -0.445128 76 0 153
-0.353210 -0.032436 -0.395259 76 0 153
-0.067984 -0.023224 -0.557988 76 0 153
-0.609804 -0.032436 -0.301507 76 0 153
0.087727 0.018901 -0.034997 76 0 153
-0.116363 0.018901 -0.217700 76 0 153
-0.844327 0.007403 -0.490930 76 0 153
-0.842931 -0.008311 0.374796 76 0 153
0.847037 0.031903 0.126752 76 0 153
-0.558411 -0.032436 -0.451969 76 0 153
-0.472053 -0.032420 0.565210 76 0 153
0.069449 -0.032436 0.231403 76 0 153
-0.167526 -0.032436 0.014877 76 0 153
0.329171 0.029242 0.239927 0 255 0
0.105503 -0.032436 0.312992 76 0 153
0.013591 -0.032436 0.178058 76 0 153
-0.309554 -0.032436 0.384420 76 0 153
0.509283 0.025944 -0.243215 76 0 153
-0.843757 -0.005483 0.442382 76 0 153
-0.684044 0.035006 -0.557010 76 0 153
-0.251132 0.018901 -0.024176 76 0 153
0.219693 0.031903 -0.298631 76 0 153
0.473914 0.018901 0.111509 76 0 153
0.094482 0.031903 -0.288257 76 0 153
-0.502686 -0.032436 0.042462 76 0 153
0.793965 0.026169 -0.022049 76 0 153
-0.709716 -0.032436 0.187548 76 0 153
-0.760355 -0.032436 -0.332047 76 0 153
0.069608 0.029242 -0.185147 255 0 0
-0.552010 -0.032436 -0.031834 76 0 153
-0.054697 -0.032436 -0.360905 76 0 153
-0.067553 -0.032436 0.225038 76 0 153
-0.111087 -0.032422 0.561412 76 0 153
-0.214024 -0.032436 0.018839 76 0 153
-0.737787 0.029242 -0.032670 76 0 153
-0.459515 -0.032436 -0.366293 76 0 153
-0.436124 0.031903 0.293620 76 0 153
0.866449 -0.003696 -0.215505 76 0 153
-0.137602 0.029242 -0.029663 127 0 127
-0.170634 -0.003824 -0.542043 76 0 153
0.777916 0.031903 -0.335394 76 0 153
