ply
format ascii 1.0
element vertex 1275
property float x
property float y
property float z
property uchar red
property uchar green
property uchar blue
end_header
-0.451513 -0.032436 -0.528232 76 0 153
0.143786 -0.032436 -0.055891 76 0 153
-0.556166 0.022238 0.222623 76 153 0
-0.804303 -0.031918 0.058418 76 0 153
0.032171 0.023632 -0.118232 76 0 153
0.338170 -0.032436 -0.422089 76 0 153
-0.564638 0.029242 -0.109265 153 0 76
0.168435 0.029242 0.064430 76 0 153
-0.164438 0.031903 -0.456192 76 0 153
-0.161404 0.018901 -0.048822 76 0 153
-0.446823 -0.032436 -0.145131 76 0 153
0.501815 0.028248 0.087453 76 0 153
0.612296 -0.032436 -0.276738 76 0 153
0.188009 -0.032436 0.362071 76 0 153
0.847247 -0.025830 -0.092539 76 0 153
-0.332253 -0.032436 -0.266752 76 0 153
0.780166 0.015588 -0.554346 76 0 153
0.521867 0.029242 0.145067 0 0 255
0.386698 -0.032436 0.430055 76 0 153
-0.649896 -0.032436 0.520944 76 0 153
-0.620538 -0.032436 0.313172 76 0 153
-0.538058 0.031903 0.458452 76 0 153
-0.637418 0.031903 0.299699 76 0 153
0.127510 0.024331 0.270740 76 0 153
-0.434132 -0.032436 0.047533 76 0 153
0.577023 0.031903 0.526502 76 0 153
0.007577 0.031903 -0.309026 76 0 153
0.448227 -0.032436 0.171883 76 0 153
-0.411886 -0.032436 0.004377 76 0 153
0.348461 0.031903 -0.351302 76 0 153
0.547843 0.031903 -0.313168 76 0 153
-0.408330 -0.032436 0.164516 76 0 153
-0.585918 0.031903 0.433560 76 0 153
-0.571723 -0.032436 0.474059 76 0 153
-0.296784 0.029866 0.478339 76 0 153
-0.071233 0.031790 0.538908 76 0 153
0.550267 -0.032436 -0.350385 76 0 153
-0.391724 -0.032436 0.108551 76 0 153
-0.470483 0.031903 -0.284849 76 0 153
0.677382 0.018901 0.012890 76 0 153
-0.405654 0.028479 0.502452 76 0 153
-0.326632 -0.032436 0.468671 76 0 153
-0.820287 -0.027835 -0.252958 76 0 153
0.866709 0.009246 -0.044987 76 0 153
0.107742 0.031903 0.324483 76 0 153
0.015894 -0.032436 0.150545 76 0 153
0.296589 -0.032436 0.452658 76 0 153
-0.557541 -0.032436 0.181152 76 0 153
-0.258834 -0.032436 -0.410036 76 0 153
0.851267 -0.023642 -0.202370 76 0 153
0.596724 -0.027506 -0.555915 76 0 153
-0.713132 0.029242 -0.088637 153 76 0
0.684863 0.031903 -0.350076 76 0 153
-0.103164 0.012600 0.579176 76 0 153
-0.098766 -0.032436 -0.090039 76 0 153
0.746852 -0.032436 0.000048 76 0 153
-0.843921 0.026158 0.499177 76 0 153
-0.152089 -0.032436 -0.097063 76 0 153
0.461283 0.031903 -0.317372 76 0 153
0.777369 -0.032436 0.365046 76 0 153
0.316948 -0.032436 -0.098669 76 0 153
-0.457502 -0.032436 -0.050067 76 0 153
0.650249 -0.032436 -0.030341 76 0 153
-0.342029 -0.032436 0.308737 76 0 153
-0.810042 -0.030899 -0.367501 76 0 153
0.015925 -0.032436 -0.398707 76 0 153
-0.588572 -0.032436 0.284923 76 0 153
0.470886 0.029242 -0.051422 0 127 127
-0.308095 0.031903 -0.276678 76 0 153
-0.586510 -0.032436 0.406700 76 0 153
-0.278922 -0.032436 -0.111154 76 0 153
-0.168550 -0.032421 0.562952 76 0 153
-0.563876 0.031903 -0.458454 76 0 153
0.179686 0.018901 0.178032 204 51 127
0.817061 -0.032436 -0.529766 76 0 153
0.006252 0.018901 -0.210408 76 0 153
0.202979 -0.032436 -0.239784 76 0 153
-0.643608 0.031903 0.468714 76 0 153
-0.383724 0.011671 -0.542043 76 0 153
-0.337302 0.025857 -0.145016 127 0 127
0.866709 0.006727 0.128146 76 0 153
0.140596 0.021392 -0.232945 76 0 153
-0.270540 0.031903 -0.531609 76 0 153
0.296873 -0.032436 -0.191038 76 0 153
-0.844327 0.025377 0.101429 76 0 153
0.338514 -0.032436 -0.066228 76 0 153
0.246290 -0.032436 0.438058 76 0 153
-0.545605 -0.032436 0.121265 76 0 153
0.197687 0.025246 -0.241640 76 0 153
0.850896 -0.004269 0.579316 76 0 153
0.297526 -0.032436 -0.154894 76 0 153
0.523344 0.029092 -0.362698 76 0 153
0.257024 0.024367 -0.395199 76 0 153
0.040941 0.035182 -0.552347 76 0 153
0.256380 0.016028 -0.561327 76 0 153
0.661424 0.031903 0.423471 76 0 153
0.099512 -0.032436 -0.370284 76 0 153
0.500495 -0.026024 0.576715 76 0 153
0.532367 -0.032436 0.269543 76 0 153
0.330535 0.018901 -0.072444 76 153 0
0.114420 0.031903 -0.456275 76 0 153
-0.147046 -0.032436 -0.526678 76 0 153
0.825055 0.031903 -0.401698 76 0 153
-0.287951 -0.032436 -0.165473 76 0 153
-0.024013 -0.032436 -0.483698 76 0 153
0.504891 0.018901 0.032503 204 51 127
0.338272 0.031164 0.546171 76 0 153
-0.575054 -0.032436 0.029475 76 0 153
0.849154 -0.024886 -0.405128 76 0 153
-0.559416 -0.032436 0.528983 76 0 153
-0.355523 0.023122 -0.368740 76 0 153
-0.146042 0.031903 -0.301923 76 0 153
0.406391 -0.032436 0.405167 76 0 153
-0.227308 -0.032436 -0.288544 76 0 153
-0.496329 0.018901 0.045131 76 0 153
-0.097247 0.018901 0.209455 153 76 0
0.723793 0.024873 -0.395720 76 0 153
-0.717728 0.031903 0.447919 76 0 153
0.221717 0.023303 0.164869 204 51 127
0.866709 0.025474 -0.221712 76 0 153
0.179182 0.031903 0.507251 76 0 153
0.251621 -0.032436 -0.395830 76 0 153
0.588789 0.031903 -0.527162 76 0 153
0.370796 -0.032436 -0.030008 76 0 153
-0.636571 -0.032436 0.425447 76 0 153
0.828760 0.031903 -0.093025 76 0 153
-0.642975 0.031903 -0.474942 76 0 153
0.056718 0.031903 -0.455840 76 0 153
-0.525328 -0.032436 0.284939 76 0 153
-0.000586 0.031903 0.291799 76 0 153
-0.740205 0.031903 0.394897 76 0 153
-0.602972 -0.032436 0.003508 76 0 153
-0.781560 0.028672 -0.006478 76 0 153
0.866709 0.016545 -0.433828 76 0 153
0.116465 -0.032436 -0.408013 76 0 153
-0.072258 -0.002011 -0.542043 76 0 153
-0.781465 -0.032436 0.112512 76 0 153
-0.667994 0.019585 -0.375252 76 0 153
0.786834 0.023759 -0.054146 76 0 153
-0.065105 -0.032436 0.066308 76 0 153
0.607256 0.031903 0.418555 76 0 153
-0.296581 -0.032436 -0.439878 76 0 153
-0.392283 0.031903 0.532534 76 0 153
0.613822 0.031903 -0.464428 76 0 153
-0.003522 0.028339 -0.248620 76 0 153
0.102138 0.018901 0.093249 76 0 153
0.618283 -0.032436 -0.476095 76 0 153
-0.588622 0.031903 -0.405224 76 0 153
-0.801795 -0.032226 -0.486071 76 0 153
0.865991 -0.005993 -0.455193 76 0 153
-0.805297 0.031903 0.450844 76 0 153
0.076912 -0.032436 -0.116376 76 0 153
-0.160738 0.028113 0.428519 76 0 153
0.507415 -0.032436 -0.035549 76 0 153
-0.608571 -0.032436 -0.523014 76 0 153
0.139214 0.031903 -0.297609 76 0 153
-0.742457 -0.032436 0.519072 76 0 153
0.459321 -0.032436 -0.167024 76 0 153
0.203795 0.018901 0.125956 76 0 153
0.485059 -0.032436 0.463730 76 0 153
-0.155479 -0.032436 -0.054926 76 0 153
0.684348 -0.032436 0.156024 76 0 153
0.000685 -0.023777 0.578598 76 0 153
0.419638 -0.032436 0.460058 76 0 153
0.743368 -0.032436 0.329438 76 0 153
0.516634 0.021042 -0.390712 76 0 153
-0.815575 0.031903 0.335156 76 0 153
-0.275477 -0.032436 0.207896 76 0 153
-0.238008 0.028386 -0.564293 76 0 153
-0.316270 0.028895 -0.249873 76 0 153
-0.754661 -0.032436 -0.444074 76 0 153
-0.163167 -0.007109 -0.542043 76 0 153
0.684566 0.031903 -0.530571 76 0 153
0.176434 -0.032436 -0.154963 76 0 153
-0.250788 0.029242 -0.040160 0 255 0
-0.306919 -0.032210 -0.544806 76 0 153
-0.472451 0.029242 -0.086704 76 153 0
-0.051517 -0.032436 0.231026 76 0 153
0.100682 -0.032436 0.141344 76 0 153
-0.373270 0.018901 0.200050 76 0 153
0.825207 0.031903 0.125436 76 0 153
-0.525654 0.029242 0.212798 76 0 153
-0.638326 0.010629 -0.542043 76 0 153
0.388290 0.031903 -0.309841 76 0 153
0.186329 0.027318 0.561144 76 0 153
0.841813 -0.028164 0.375839 76 0 153
-0.844228 -0.002018 -0.250222 76 0 153
0.034526 0.031903 0.534058 76 0 153
0.836027 0.031903 -0.266846 76 0 153
0.503153 0.018901 -0.008958 0 127 127
0.838071 0.031903 0.025929 76 0 153
-0.446012 -0.032436 -0.299291 76 0 153
-0.446820 -0.032436 0.084612 76 0 153
0.553004 -0.032436 0.378503 76 0 153
-0.691602 0.018901 0.075362 76 0 153
-0.699194 -0.032436 -0.001981 76 0 153
0.744339 0.029242 0.142070 76 0 153
-0.272114 -0.032436 0.321569 76 0 153
-0.844327 -0.000219 -0.487474 76 0 153
0.866709 0.025916 -0.520859 76 0 153
0.461057 0.018901 -0.145069 76 0 153
-0.815591 0.031903 -0.376630 76 0 153
0.512678 0.031903 0.290839 76 0 153
0.509347 0.031903 -0.305630 76 0 153
-0.352245 0.018901 -0.198481 76 0 153
0.552626 -0.032436 -0.162734 76 0 153
0.754138 0.031903 0.461502 76 0 153
0.238175 0.021141 0.277459 76 0 153
0.729904 -0.032436 -0.030763 76 0 153
0.833935 -0.030593 -0.430227 76 0 153
-0.695326 -0.007232 0.580808 76 0 153
-0.125818 -0.032436 0.417652 76 0 153
0.785142 0.031903 0.427163 76 0 153
-0.615041 0.025658 0.564648 76 0 153
-0.449525 -0.032436 0.378934 76 0 153
0.619141 -0.032436 -0.529098 76 0 153
0.165423 -0.032436 0.164659 76 0 153
0.583195 0.032902 -0.560954 76 0 153
0.601865 -0.032436 -0.322970 76 0 153
-0.503504 0.031903 -0.530435 76 0 153
0.508537 0.031903 0.401002 76 0 153
-0.229866 -0.032436 -0.250175 76 0 153
-0.245361 0.028113 0.387528 76 0 153
-0.713415 -0.025225 -0.557475 76 0 153
0.078625 0.029242 0.042933 204 51 127
-0.545645 -0.032436 -0.459703 76 0 153
0.121639 0.018901 -0.047013 76 0 153
-0.505622 0.018901 0.121474 0 0 255
-0.302135 -0.032436 -0.029331 76 0 153
0.243514 -0.032436 -0.492939 76 0 153
-0.188040 0.034452 -0.549809 76 0 153
0.387625 -0.032436 -0.221793 76 0 153
0.539139 0.019035 -0.187408 204 51 127
0.000443 0.031903 0.387030 76 0 153
0.553728 0.018901 0.251213 76 0 153
-0.199364 0.028113 0.320914 76 0 153
0.653111 -0.032436 0.075449 76 0 153
-0.122699 0.029242 0.087963 0 127 127
-0.128607 -0.032436 0.208436 76 0 153
-0.083030 0.031903 0.303873 76 0 153
0.505178 -0.032436 0.139480 76 0 153
-0.429826 0.031903 -0.324160 76 0 153
-0.706503 0.018901 0.256224 76 0 153
-0.688718 0.030864 0.548354 76 0 153
-0.187362 -0.032436 -0.340737 76 0 153
0.376355 0.031903 -0.473840 76 0 153
-0.693765 0.031903 0.309697 76 0 153
0.367344 -0.032436 -0.122322 76 0 153
-0.322462 0.031903 -0.518480 76 0 153
0.344111 0.031903 -0.490701 76 0 153
0.181151 -0.003665 -0.542043 76 0 153
0.391893 -0.018797 0.580808 76 0 153
0.792975 -0.032436 0.225922 76 0 153
0.684124 -0.032436 0.455190 76 0 153
0.425007 -0.032436 -0.262994 76 0 153
-0.403765 -0.032436 0.378071 76 0 153
-0.844327 0.013122 0.474613 76 0 153
0.416028 0.024382 -0.018960 76 0 153
0.550079 0.031903 0.486067 76 0 153
0.201423 -0.032436 -0.474537 76 0 153
-0.464422 0.025903 -0.243122 76 0 153
-0.518115 0.021993 0.265465 76 0 153
-0.532074 0.031903 0.358075 76 0 153
-0.519351 0.025885 0.564173 76 0 153
-0.255173 -0.032436 0.173318 76 0 153
0.335110 -0.010234 -0.542043 76 0 153
-0.794835 -0.032434 0.540374 76 0 153
-0.844291 -0.001368 -0.120587 76 0 153
0.779398 0.021246 0.039964 76 0 153
0.569021 0.018901 0.070536 153 0 76
0.795428 -0.032436 -0.430678 76 0 153
0.824367 -0.032203 0.524222 76 0 153
0.189779 -0.032436 -0.421654 76 0 153
0.262769 -0.032436 0.408434 76 0 153
-0.179349 -0.032436 0.202847 76 0 153
0.469099 -0.032436 0.096549 76 0 153
-0.225609 0.008258 -0.542043 76 0 153
0.580985 -0.032436 0.081673 76 0 153
0.583143 0.028958 -0.155252 204 51 127
0.419355 -0.032436 -0.142429 76 0 153
0.132399 -0.032436 0.217520 76 0 153
0.849143 -0.024891 -0.139050 76 0 153
-0.609675 0.029242 -0.062442 153 0 76
-0.572369 -0.032436 -0.514814 76 0 153
-0.106110 -0.032436 -0.454726 76 0 153
0.291834 -0.032436 0.316075 76 0 153
-0.045793 -0.032436 0.331874 76 0 153
-0.167372 0.018901 0.099113 76 0 153
-0.188212 -0.032436 0.046786 76 0 153
-0.095760 -0.032425 0.556610 76 0 153
0.150398 0.031903 0.291190 76 0 153
0.331557 -0.032436 -0.477524 76 0 153
0.386368 -0.032436 0.147300 76 0 153
0.070807 0.031903 0.406349 76 0 153
-0.747457 -0.032436 0.385273 76 0 153
0.156363 0.027703 0.560033 76 0 153
0.217082 0.031903 -0.265917 76 0 153
0.699495 0.031684 0.541247 76 0 153
0.803537 0.031903 -0.356250 76 0 153
0.146913 -0.032436 -0.532176 76 0 153
-0.590512 0.025591 -0.242419 76 0 153
-0.550507 0.031903 0.313417 76 0 153
-0.448336 -0.032436 -0.246135 76 0 153
-0.556529 0.021316 0.117113 127 0 127
0.374998 -0.032436 0.267394 76 0 153
0.526674 -0.032436 0.093926 76 0 153
-0.130681 0.031903 0.322651 76 0 153
-0.717739 0.011588 0.579740 76 0 153
-0.487707 0.031903 0.381994 76 0 153
-0.598819 0.031903 -0.453117 76 0 153
-0.628231 0.029242 0.024994 127 127 0
0.319049 -0.032436 0.208078 76 0 153
0.559940 -0.032436 -0.473845 76 0 153
0.097844 0.018901 -0.002644 76 0 153
0.662972 0.031903 -0.497704 76 0 153
-0.296823 0.031903 -0.319281 76 0 153
0.017085 0.018901 -0.166416 76 0 153
-0.816704 0.031903 -0.048902 76 0 153
0.646782 0.029242 -0.028753 76 0 153
0.773965 0.018810 -0.379095 76 0 153
0.660984 -0.032436 -0.093953 76 0 153
-0.640785 0.031903 0.360863 76 0 153
0.108849 -0.032436 0.239932 76 0 153
-0.524743 -0.032436 0.102248 76 0 153
-0.844327 0.002882 0.166748 76 0 153
-0.008673 0.031903 0.510117 76 0 153
-0.014961 0.027738 0.559933 76 0 153
0.507627 0.029242 -0.139165 76 153 0
0.524704 0.029242 0.226256 0 127 127
-0.263267 -0.032436 -0.218332 76 0 153
-0.118137 0.031903 -0.266607 76 0 153
0.780622 -0.032436 -0.054016 76 0 153
0.629539 0.029242 -0.135929 76 0 153
-0.742107 0.031903 -0.324325 76 0 153
0.059205 0.027240 -0.005211 76 153 0
-0.044460 0.031903 0.512972 76 0 153
0.847986 0.031903 -0.348311 76 0 153
0.682716 -0.032436 0.064526 76 0 153
-0.537610 -0.032436 0.228274 76 0 153
0.248239 0.031903 0.434814 76 0 153
-0.844327 0.000585 -0.376282 76 0 153
0.629996 0.018901 -0.079232 76 0 153
-0.132918 0.029242 -0.094564 0 255 0
-0.405983 0.028790 0.010198 153 0 76
0.466994 0.031903 -0.259178 76 0 153
0.066651 -0.032436 0.454843 76 0 153
0.035876 0.031903 -0.346217 76 0 153
-0.180953 -0.032436 -0.296207 76 0 153
-0.722368 0.029242 0.214173 0 127 127
-0.645607 0.031903 -0.267585 76 0 153
-0.715277 0.029242 0.063222 127 127 0
0.044209 0.031903 0.328880 76 0 153
-0.091210 -0.032436 0.256872 76 0 153
0.149681 -0.022445 0.579715 76 0 153
-0.223420 0.031903 -0.452348 76 0 153
-0.600585 -0.032436 -0.220497 76 0 153
-0.489802 0.019330 -0.386232 76 0 153
-0.184146 -0.032436 0.309893 76 0 153
-0.252624 -0.032436 -0.163063 76 0 153
-0.493162 -0.032436 -0.135230 76 0 153
-0.115028 -0.032436 0.467600 76 0 153
0.305159 0.031358 0.544765 76 0 153
-0.642119 0.018872 -0.384203 76 0 153
-0.651743 -0.032436 -0.055972 76 0 153
0.040152 -0.032436 -0.070014 76 0 153
-0.149142 0.018901 -0.218942 76 0 153
-0.356300 -0.032436 -0.455294 76 0 153
-0.005802 -0.032436 -0.105691 76 0 153
0.716318 0.031903 0.365487 76 0 153
-0.678230 -0.032436 -0.309374 76 0 153
0.684211 -0.032436 0.011203 76 0 153
-0.366817 0.028113 0.329463 76 0 153
0.116002 -0.032436 0.305235 76 0 153
-0.360539 0.003310 0.581474 76 0 153
0.726822 0.018901 0.255986 76 0 153
0.234451 -0.032436 -0.176120 76 0 153
0.704633 -0.032436 0.104264 76 0 153
-0.844327 0.001138 0.364782 76 0 153
-0.391746 -0.032436 -0.138752 76 0 153
-0.063522 -0.032436 0.288549 76 0 153
-0.564922 0.031263 0.545454 76 0 153
-0.802148 -0.032183 -0.215264 76 0 153
-0.730452 -0.032436 0.461995 76 0 153
0.321520 0.031903 0.493169 76 0 153
0.558884 0.018901 -0.002665 76 0 153
0.643225 0.031903 -0.309322 76 0 153
0.093022 -0.032436 -0.048010 76 0 153
-0.426413 0.031903 0.479978 76 0 153
-0.643208 0.018901 0.095272 127 0 127
-0.180948 0.025349 0.228796 153 76 0
0.202677 -0.032436 0.014685 76 0 153
0.415862 0.018901 -0.184537 76 0 153
-0.712813 0.031903 -0.539381 76 0 153
-0.289310 -0.032436 0.132096 76 0 153
0.735371 -0.032436 -0.361005 76 0 153
0.840197 -0.028784 0.430062 76 0 153
-0.217034 -0.032436 -0.388294 76 0 153
0.502723 0.031903 0.316223 76 0 153
0.369626 0.018901 0.170645 76 0 153
0.387927 0.034269 -0.558788 76 0 153
-0.514232 -0.032436 -0.419414 76 0 153
-0.245497 0.021499 -0.391439 76 0 153
0.361334 -0.004894 0.580808 76 0 153
0.829163 -0.031559 0.008365 76 0 153
0.308406 0.018901 0.180032 0 0 255
0.440200 -0.032436 -0.311955 76 0 153
-0.428634 0.031903 -0.439598 76 0 153
0.320598 0.031903 -0.467044 76 0 153
-0.408786 0.018901 -0.048542 76 0 153
-0.349507 -0.032436 -0.513974 76 0 153
-0.002861 0.019591 -0.387297 76 0 153
0.665961 -0.027317 -0.556078 76 0 153
0.168227 0.031903 -0.535609 76 0 153
0.793833 0.031903 0.370886 76 0 153
-0.675109 0.031903 -0.426551 76 0 153
0.564357 0.026423 -0.396997 76 0 153
0.291273 0.031903 -0.408957 76 0 153
0.785124 0.023181 0.133468 76 0 153
0.267681 -0.032436 -0.019725 76 0 153
-0.091559 -0.032436 0.357835 76 0 153
0.589962 -0.032436 -0.021892 76 0 153
-0.761347 -0.032436 -0.383456 76 0 153
0.394514 0.031903 -0.343217 76 0 153
-0.168753 -0.032436 -0.392930 76 0 153
-0.142034 0.029242 0.010525 76 0 153
-0.673564 -0.032436 0.376852 76 0 153
-0.097946 -0.032436 -0.224202 76 0 153
0.570422 0.029242 0.043361 153 0 76
-0.398941 -0.032436 -0.074585 76 0 153
0.063631 -0.032436 -0.528655 76 0 153
0.827509 -0.031817 0.326943 76 0 153
0.612243 0.031903 -0.332311 76 0 153
0.114842 0.031903 0.412949 76 0 153
-0.096942 0.028642 -0.564187 76 0 153
-0.403697 0.018901 0.218547 76 0 153
-0.260473 0.024896 0.272016 76 0 153
0.501205 -0.032436 0.046413 76 0 153
-0.806452 -0.031625 -0.099549 76 0 153
0.689311 0.027196 -0.035968 76 0 153
-0.477014 -0.032436 -0.262549 76 0 153
0.736083 -0.032436 0.438004 76 0 153
0.144815 0.018901 0.216358 76 0 153
-0.308591 0.029242 -0.187243 153 76 0
-0.090773 -0.032436 0.494605 76 0 153
-0.800408 -0.014973 0.580808 76 0 153
-0.801779 -0.032228 -0.434747 76 0 153
-0.178998 -0.032436 0.390060 76 0 153
-0.182242 0.031903 -0.491168 76 0 153
0.789295 0.031903 -0.235941 76 0 153
0.345414 0.020092 -0.208464 0 127 127
0.798516 0.029426 0.554860 76 0 153
0.333983 0.031857 -0.562152 76 0 153
-0.311286 -0.032436 0.411614 76 0 153
-0.665071 0.029242 0.116867 127 0 127
-0.658469 -0.032436 -0.210700 76 0 153
-0.721938 0.018901 -0.140292 76 0 153
0.109461 -0.032436 -0.230387 76 0 153
-0.358034 0.018901 0.242719 76 0 153
0.295789 -0.032436 -0.127929 76 0 153
0.845650 0.031686 -0.544707 76 0 153
0.849640 0.031523 0.496245 76 0 153
0.646173 -0.032436 -0.176571 76 0 153
0.013553 -0.032436 -0.448042 76 0 153
-0.246905 -0.032436 0.272586 76 0 153
0.642300 -0.032436 -0.259830 76 0 153
0.162716 0.031903 0.430886 76 0 153
-0.740196 0.018901 -0.041172 76 0 153
-0.817296 -0.028969 0.174717 76 0 153
-0.575651 -0.032436 0.114319 76 0 153
-0.201357 -0.032436 -0.189307 76 0 153
-0.107453 -0.032436 -0.169182 76 0 153
0.548504 0.018901 -0.072409 153 0 76
0.860216 -0.016383 -0.030525 76 0 153
0.254570 -0.032436 -0.300470 76 0 153
0.866709 0.008185 0.020589 76 0 153
0.645391 -0.032436 -0.322187 76 0 153
0.746771 -0.032436 -0.120369 76 0 153
-0.411252 -0.032436 0.265478 76 0 153
0.162507 0.027741 -0.247268 76 0 153
0.446600 -0.032436 0.515868 76 0 153
0.717717 0.007455 0.581119 76 0 153
0.041588 -0.032428 0.550171 76 0 153
-0.545560 -0.032436 -0.330351 76 0 153
0.835368 -0.030211 0.090582 76 0 153
0.283974 0.018901 0.045168 76 0 153
0.551069 0.018901 -0.149391 76 0 153
0.743023 -0.032436 -0.249423 76 0 153
-0.602629 0.024613 0.271378 76 0 153
-0.451170 0.019453 -0.073485 76 153 0
0.261618 0.031903 -0.452142 76 0 153
0.668715 -0.032436 0.206659 76 0 153
-0.103564 -0.032436 0.095617 76 0 153
-0.498187 -0.032436 0.201276 76 0 153
0.605775 0.018901 0.167611 76 0 153
0.503524 -0.032436 -0.397430 76 0 153
-0.424068 0.029242 -0.114580 0 127 127
-0.412288 -0.032436 -0.393865 76 0 153
0.738677 -0.032436 -0.199226 76 0 153
0.481272 0.031903 -0.538704 76 0 153
-0.135016 -0.032436 -0.356693 76 0 153
-0.220940 -0.032436 0.189370 76 0 153
0.181141 0.023881 -0.367877 76 0 153
-0.341412 -0.032436 -0.358594 76 0 153
-0.730146 -0.032436 -0.328897 76 0 153
-0.479678 -0.032436 0.081687 76 0 153
-0.553889 0.018901 0.003716 0 255 0
-0.026435 -0.032436 -0.292141 76 0 153
0.372533 0.029242 -0.033549 76 0 153
-0.001683 0.018901 0.202438 76 0 153
-0.236473 -0.032436 0.020957 76 0 153
0.015671 -0.032436 0.048297 76 0 153
0.338045 0.031903 -0.324553 76 0 153
0.111617 0.018901 -0.090454 76 0 153
-0.064146 -0.032436 0.009380 76 0 153
0.145958 -0.032436 0.334169 76 0 153
0.362282 -0.032436 0.318625 76 0 153
-0.764581 0.028499 0.557738 76 0 153
0.364652 0.018901 0.001571 76 0 153
0.161889 -0.032436 0.467513 76 0 153
0.073496 0.031903 -0.540293 76 0 153
-0.505393 0.014845 0.521227 76 0 153
0.073329 -0.032436 0.282987 76 0 153
0.331640 0.018901 -0.167726 76 0 153
0.452170 -0.032436 0.297467 76 0 153
0.651507 0.029242 0.105251 76 0 153
-0.083123 -0.011595 0.580808 76 0 153
-0.828602 0.031090 0.305809 76 0 153
0.100808 0.018901 0.123397 76 0 153
0.174843 0.026296 -0.067767 76 0 153
-0.766128 0.023457 0.137116 76 0 153
0.864071 -0.010893 -0.277112 76 0 153
-0.610752 0.018901 -0.195570 76 0 153
0.776446 0.020396 -0.191399 76 0 153
-0.210785 -0.032436 0.066100 76 0 153
-0.817568 0.031663 0.541718 76 0 153
0.313113 -0.032436 -0.373050 76 0 153
0.400027 -0.032436 -0.415476 76 0 153
0.273673 -0.032436 0.215356 76 0 153
-0.492220 -0.032436 -0.440904 76 0 153
-0.839152 0.025209 -0.551920 76 0 153
0.417149 0.019298 -0.143108 76 153 0
0.468776 -0.032436 0.258250 76 0 153
-0.525728 0.029242 0.138420 0 0 255
0.532475 -0.032436 -0.480456 76 0 153
0.454274 0.018901 -0.181490 76 0 153
-0.808394 0.031903 -0.530017 76 0 153
-0.781254 0.031903 0.529913 76 0 153
0.319315 -0.032436 0.280471 76 0 153
-0.067551 -0.032436 0.412135 76 0 153
-0.771206 -0.032436 -0.122421 76 0 153
-0.033497 0.016917 0.576227 76 0 153
-0.751500 0.018901 -0.121938 153 76 0
-0.179399 -0.032436 -0.147677 76 0 153
-0.263598 -0.023237 0.579051 76 0 153
-0.706874 0.018901 0.149949 76 0 153
-0.438981 -0.032436 -0.105653 76 0 153
0.193696 -0.032436 -0.388331 76 0 153
-0.469868 0.031903 0.485157 76 0 153
0.002346 0.018901 0.140599 76 0 153
0.365398 -0.032436 0.024289 76 0 153
-0.026452 -0.032436 0.495207 76 0 153
-0.026496 0.029242 0.089110 255 0 0
0.713070 0.031903 -0.290162 76 0 153
-0.248684 0.018901 0.181039 76 0 153
-0.480621 0.031903 0.452086 76 0 153
0.755089 0.031903 -0.337957 76 0 153
-0.774830 -0.032436 -0.539693 76 0 153
0.423750 0.018901 0.056890 76 0 153
0.134178 0.018901 0.028959 153 0 76
-0.442244 -0.032436 -0.456773 76 0 153
-0.822674 -0.026916 -0.157680 76 0 153
0.256701 -0.032436 -0.342502 76 0 153
-0.230340 0.028113 0.358836 76 0 153
-0.654894 0.028435 0.280002 76 0 153
-0.551558 0.029242 0.054134 0 255 0
0.501679 0.022798 0.267283 76 0 153
0.364348 0.031903 -0.440349 76 0 153
-0.612196 -0.008938 -0.542043 76 0 153
-0.799979 0.031903 0.258390 76 0 153
0.803163 0.029277 -0.152833 76 0 153
-0.561412 0.018901 0.172638 76 0 153
0.544412 -0.032436 -0.533891 76 0 153
0.689615 -0.032436 -0.073068 76 0 153
-0.529241 0.031903 0.512071 76 0 153
-0.749323 -0.032436 -0.025538 76 0 153
0.045080 0.029242 0.182402 76 0 153
0.662018 -0.032436 -0.346230 76 0 153
-0.205660 -0.032436 -0.238931 76 0 153
0.814710 -0.032436 0.466726 76 0 153
-0.034013 -0.032436 0.014932 76 0 153
-0.802729 0.031903 -0.271525 76 0 153
0.140869 0.009967 0.580352 76 0 153
0.072114 0.018901 0.184655 76 0 153
0.440946 -0.032436 -0.447304 76 0 153
-0.688329 0.029242 0.103401 127 0 127
-0.295232 -0.032436 0.104070 76 0 153
-0.194315 -0.032436 -0.092997 76 0 153
-0.659539 0.018901 -0.205812 76 0 153
-0.256439 0.031903 0.489481 76 0 153
-0.563327 0.018901 -0.022337 76 0 153
-0.739303 0.027067 -0.091529 153 76 0
0.555414 0.031903 0.436448 76 0 153
0.487063 -0.032436 -0.533468 76 0 153
0.342597 0.031903 0.466463 76 0 153
0.800608 -0.032436 -0.387396 76 0 153
0.566764 -0.032436 -0.126604 76 0 153
0.035986 0.031903 0.406295 76 0 153
-0.336092 -0.032436 0.435241 76 0 153
-0.513024 0.018901 -0.030452 204 51 127
0.474576 -0.032436 -0.395474 76 0 153
-0.650082 0.018901 -0.073631 76 0 153
0.075548 0.018901 -0.083417 76 0 153
-0.358815 0.031903 -0.503126 76 0 153
-0.757166 -0.032436 0.193560 76 0 153
0.555090 -0.032436 0.433355 76 0 153
0.791276 0.028265 0.246036 76 0 153
0.794660 0.031903 -0.271032 76 0 153
0.356671 -0.032436 -0.403283 76 0 153
-0.403079 0.019363 -0.376157 76 0 153
0.667897 0.016740 -0.544278 76 0 153
0.208742 0.018901 0.220604 204 51 127
-0.549278 -0.032436 -0.120271 76 0 153
-0.627556 -0.032436 -0.330941 76 0 153
0.060475 0.031903 0.453572 76 0 153
0.366399 0.031903 0.362926 76 0 153
-0.441178 0.023297 0.055596 153 0 76
0.797121 0.031903 -0.330694 76 0 153
-0.121480 0.031903 -0.403928 76 0 153
0.749209 -0.032436 -0.147317 76 0 153
0.094299 0.031903 0.301843 76 0 153
0.359597 0.029242 0.034402 153 0 76
-0.061623 -0.032436 -0.527303 76 0 153
0.671446 0.018901 -0.225228 76 0 153
0.796527 -0.032436 0.097996 76 0 153
-0.014471 -0.032436 0.093157 76 0 153
-0.400896 -0.032436 0.325819 76 0 153
-0.295565 0.018901 0.175626 76 0 153
0.567503 0.021954 -0.370359 76 0 153
0.556037 0.018901 0.188235 76 0 153
0.781363 -0.032436 0.050252 76 0 153
0.193832 0.018901 0.003206 76 0 153
-0.049375 -0.032436 -0.343105 76 0 153
0.521474 0.018901 0.065697 76 0 153
0.687513 0.026581 -0.244652 76 0 153
0.661595 -0.032436 0.380737 76 0 153
-0.580769 0.029242 0.024986 0 255 0
-0.539553 -0.032436 0.067158 76 0 153
-0.436008 -0.032436 -0.008162 76 0 153
-0.731507 0.019117 0.003952 76 0 153
0.201402 -0.032436 -0.297256 76 0 153
0.675131 -0.032436 -0.040476 76 0 153
-0.636974 0.030346 0.550966 76 0 153
-0.474145 0.020357 0.000483 0 0 255
0.518906 0.026198 -0.243788 76 0 153
0.522868 0.031903 0.441693 76 0 153
0.339058 -0.032436 0.177341 76 0 153
0.526531 -0.032436 0.124204 76 0 153
-0.424850 0.027112 0.561598 76 0 153
-0.514560 -0.001382 -0.542043 76 0 153
0.658692 0.018901 -0.183017 76 0 153
0.189151 0.031903 -0.416070 76 0 153
0.383032 -0.032436 0.066099 76 0 153
-0.435737 -0.032436 0.430876 76 0 153
-0.554721 0.031903 -0.542475 76 0 153
-0.028006 0.018901 -0.195940 76 0 153
-0.028067 -0.032436 -0.038379 76 0 153
-0.110716 0.031903 0.298134 76 0 153
-0.163168 0.019380 0.147809 76 0 153
-0.771614 0.031903 -0.494713 76 0 153
0.688357 -0.032436 -0.284053 76 0 153
-0.547711 -0.032436 0.495987 76 0 153
-0.303675 -0.032436 -0.259584 76 0 153
0.365752 -0.032436 -0.491892 76 0 153
0.286262 0.018901 -0.171367 0 127 127
0.083042 0.029242 -0.048063 153 0 76
-0.834556 -0.019577 0.429707 76 0 153
0.537006 -0.032436 0.214112 76 0 153
-0.844327 0.022028 -0.176480 76 0 153
-0.708661 -0.032436 -0.129013 76 0 153
0.066310 0.028872 -0.399572 76 0 153
0.118216 0.031903 -0.533441 76 0 153
-0.017650 0.018901 -0.035695 76 0 153
0.003303 0.031903 -0.467525 76 0 153
0.292630 0.030226 -0.252877 76 0 153
-0.237397 -0.032436 0.466430 76 0 153
0.865823 -0.006565 0.420072 76 0 153
-0.299776 -0.032436 -0.087022 76 0 153
-0.791263 0.031903 -0.098947 76 0 153
-0.299689 -0.032436 0.160785 76 0 153
-0.363519 0.018901 -0.074924 76 0 153
0.450471 0.020297 0.021623 76 0 153
-0.761309 -0.032436 0.062961 76 0 153
0.082848 0.031903 0.493931 76 0 153
-0.712351 -0.032436 -0.066503 76 0 153
-0.300423 -0.032436 0.511118 76 0 153
-0.283233 -0.032436 0.536058 76 0 153
0.387948 0.024387 -0.395221 76 0 153
0.270436 0.018901 0.202243 76 0 153
0.084166 -0.032436 -0.319866 76 0 153
-0.065814 0.031903 0.442704 76 0 153
-0.240550 -0.032436 0.317577 76 0 153
0.694149 0.018971 0.123790 127 127 0
-0.513270 0.031903 -0.474717 76 0 153
-0.762715 -0.032436 -0.075352 76 0 153
-0.823541 -0.026486 0.362990 76 0 153
-0.389851 0.031903 -0.408100 76 0 153
0.146011 -0.032436 0.129201 76 0 153
-0.583274 0.031903 -0.301885 76 0 153
0.050432 0.031903 -0.484588 76 0 153
0.257996 0.031903 0.389113 76 0 153
-0.457540 -0.032436 -0.432553 76 0 153
0.694063 -0.032436 -0.339166 76 0 153
0.091149 -0.032436 0.194570 76 0 153
0.291347 -0.032436 -0.473404 76 0 153
-0.103462 0.031903 0.370828 76 0 153
0.256083 -0.032436 0.332250 76 0 153
0.416851 -0.032431 0.544123 76 0 153
-0.432771 0.028113 0.317586 76 0 153
-0.135238 0.018901 0.108696 76 0 153
-0.364281 -0.030349 -0.551670 76 0 153
0.288533 -0.032436 -0.345592 76 0 153
-0.018352 0.012575 -0.542043 76 0 153
-0.245016 -0.029977 -0.552452 76 0 153
0.459867 0.031903 0.369910 76 0 153
-0.355940 0.031903 -0.408335 76 0 153
0.380562 0.031903 0.312735 76 0 153
0.413685 -0.032436 0.221994 76 0 153
-0.003132 0.028494 0.010086 76 0 153
0.754718 0.031660 0.541787 76 0 153
0.762314 -0.032436 0.308074 76 0 153
0.854050 -0.010456 -0.556673 76 0 153
-0.303037 -0.032436 -0.388719 76 0 153
0.042569 -0.032436 0.011034 76 0 153
0.704444 -0.014874 0.580808 76 0 153
0.654697 -0.032426 0.554113 76 0 153
-0.465438 -0.032436 0.032503 76 0 153
-0.206743 -0.008198 0.580808 76 0 153
0.110705 -0.032436 0.167290 76 0 153
-0.464859 0.018901 0.087978 255 0 0
0.412842 0.019119 0.574212 76 0 153
0.470378 -0.032436 0.348215 76 0 153
-0.352708 -0.032436 -0.408705 76 0 153
-0.711823 -0.032436 -0.480224 76 0 153
-0.649413 0.031903 -0.430081 76 0 153
0.687936 -0.032436 -0.437265 76 0 153
0.866633 -0.001785 0.221356 76 0 153
-0.345506 -0.032436 0.079576 76 0 153
0.060630 -0.032436 0.155633 76 0 153
0.481632 -0.032436 -0.269139 76 0 153
-0.074479 -0.032436 -0.357999 76 0 153
-0.332326 0.026341 0.563215 76 0 153
-0.836884 -0.017334 0.570146 76 0 153
0.311524 -0.032436 0.387968 76 0 153
-0.518119 -0.032436 -0.483279 76 0 153
-0.132643 -0.032436 0.243997 76 0 153
-0.386999 0.018901 -0.004386 255 0 0
0.069676 0.029242 -0.181054 255 0 0
-0.844327 -0.000048 -0.409151 76 0 153
-0.401372 0.018901 -0.073358 0 0 255
-0.620653 -0.032436 -0.484978 76 0 153
0.167920 -0.032436 -0.440390 76 0 153
-0.080342 0.029242 -0.193967 204 51 127
0.024308 0.031903 0.431963 76 0 153
-0.551480 0.024527 0.271183 76 0 153
-0.222871 0.028113 0.412996 76 0 153
-0.554893 0.018901 -0.210429 76 0 153
-0.490258 -0.032436 -0.531674 76 0 153
0.263199 -0.032436 -0.108184 76 0 153
-0.097887 0.022288 -0.152285 153 0 76
0.139107 0.018901 -0.176828 76 0 153
-0.500104 -0.032436 -0.355941 76 0 153
-0.191164 -0.022421 -0.558147 76 0 153
-0.547873 -0.032436 0.440333 76 0 153
-0.574553 -0.032436 -0.173145 76 0 153
-0.520645 -0.032422 0.562556 76 0 153
0.745956 0.018901 -0.078144 76 0 153
-0.418522 0.029242 0.071302 153 0 76
-0.844327 0.010809 -0.281953 76 0 153
0.776425 -0.032436 -0.292834 76 0 153
-0.620428 -0.032436 -0.087574 76 0 153
0.849560 -0.024684 -0.489965 76 0 153
-0.058312 -0.032436 -0.493294 76 0 153
0.715847 0.031903 -0.503860 76 0 153
-0.512960 -0.032436 0.464444 76 0 153
-0.503164 -0.032436 0.375722 76 0 153
-0.070689 -0.032436 -0.304232 76 0 153
0.843994 -0.027326 0.210085 76 0 153
-0.594958 0.028974 0.087351 76 0 153
0.277646 0.025213 -0.080649 76 153 0
-0.688466 0.031903 -0.527764 76 0 153
-0.049831 0.018901 -0.134532 153 0 76
0.252044 0.031903 -0.312346 76 0 153
-0.216936 -0.032436 0.096569 76 0 153
0.866499 -0.003177 -0.157179 76 0 153
-0.247395 -0.032436 0.494150 76 0 153
-0.792677 -0.032436 0.433059 76 0 153
-0.583425 0.031903 0.525689 76 0 153
0.388553 0.018901 0.188138 76 0 153
0.291158 -0.032436 -0.251469 76 0 153
0.363146 -0.032436 -0.213748 76 0 153
-0.233430 0.031903 -0.338950 76 0 153
-0.179714 0.029242 0.127342 76 153 0
-0.136136 0.031903 0.407266 76 0 153
-0.310431 0.018901 0.256960 76 0 153
0.843537 0.031903 -0.185134 76 0 153
-0.770170 0.031903 -0.358598 76 0 153
-0.196233 0.018901 0.178683 153 76 0
-0.325222 0.029242 0.131112 153 76 0
0.511331 -0.032436 0.458367 76 0 153
0.196599 -0.032436 0.337833 76 0 153
-0.312479 0.024510 -0.367162 76 0 153
-0.597238 0.018901 0.166935 76 153 0
0.738386 -0.032436 0.072729 76 0 153
-0.167902 0.031709 -0.256221 76 0 153
-0.472275 0.031903 -0.356951 76 0 153
0.866071 -0.005716 0.508712 76 0 153
0.815739 0.031903 -0.507058 76 0 153
0.693015 0.018901 0.237198 76 0 153
-0.659145 0.049277 -0.512910 76 0 153
0.308393 -0.032436 0.528971 76 0 153
0.099274 -0.032436 0.491713 76 0 153
-0.844327 0.018072 0.233309 76 0 153
-0.803310 -0.001606 -0.542043 76 0 153
-0.467385 -0.032436 0.326999 76 0 153
-0.553628 0.031903 -0.414477 76 0 153
-0.078348 -0.032436 0.184919 76 0 153
0.046607 -0.032436 0.403844 76 0 153
0.242965 0.018901 0.004603 76 0 153
-0.495609 0.029242 -0.046156 204 51 127
0.457303 -0.032436 -0.489119 76 0 153
-0.279887 0.026711 0.227431 153 76 0
0.749534 0.029242 0.056793 153 76 0
-0.570533 -0.032436 -0.483944 76 0 153
0.714215 0.018901 -0.101477 76 0 153
-0.844327 0.025182 0.142409 76 0 153
0.149967 0.018901 -0.111855 76 0 153
0.633344 0.031903 -0.509025 76 0 153
0.376159 0.018901 -0.208639 127 0 127
-0.645061 0.029242 0.071945 127 127 0
0.509979 -0.032436 -0.189424 76 0 153
-0.247910 0.031903 -0.290364 76 0 153
0.264495 -0.032436 -0.209745 76 0 153
0.733866 -0.032436 0.235748 76 0 153
0.791414 -0.032436 -0.146173 76 0 153
-0.052305 0.031903 -0.315601 76 0 153
0.767122 0.031903 -0.289616 76 0 153
-0.674576 0.035309 -0.554840 76 0 153
0.249260 0.018901 0.042826 76 0 153
-0.041038 0.029242 0.212656 76 0 153
0.138190 0.031903 0.374083 76 0 153
-0.249140 0.028113 0.319838 76 0 153
0.177614 -0.032436 -0.007427 76 0 153
0.254768 0.027639 0.560219 76 0 153
0.530248 -0.032436 0.409711 76 0 153
0.326613 0.018901 0.197930 76 0 153
0.356832 -0.032436 0.386153 76 0 153
-0.804727 0.016758 0.576360 76 0 153
0.026089 0.031903 -0.257776 76 0 153
0.736671 0.009609 -0.542043 76 0 153
0.773760 0.031903 -0.486041 76 0 153
-0.734821 0.018901 0.077536 76 0 153
0.050862 -0.029744 -0.552943 76 0 153
0.605838 0.018901 0.258054 76 0 153
0.151857 -0.032436 0.273200 76 0 153
-0.128455 0.028365 0.558122 76 0 153
0.838343 0.031903 0.415539 76 0 153
0.586708 0.018901 -0.048121 76 0 153
-0.165623 0.019224 -0.376723 76 0 153
-0.216975 0.018901 0.149798 76 0 153
-0.563540 -0.014360 -0.551282 76 0 153
-0.389075 -0.032436 -0.238000 76 0 153
0.746548 0.018901 0.222273 76 0 153
-0.214102 0.029242 0.199605 153 76 0
0.176387 -0.032436 -0.342653 76 0 153
-0.601695 0.027656 -0.564596 76 0 153
-0.145125 -0.032436 0.482093 76 0 153
0.854193 0.030057 0.336687 76 0 153
0.171782 0.018901 0.140650 76 0 153
-0.569080 -0.032436 -0.198150 76 0 153
-0.285479 0.018901 0.147695 153 0 76
-0.509355 -0.032436 -0.045123 76 0 153
0.316518 0.018901 -0.017589 76 0 153
0.685829 0.029242 0.180302 127 0 127
0.448676 -0.032436 -0.407616 76 0 153
-0.477607 -0.032436 -0.003856 76 0 153
0.429011 0.018901 0.212825 76 0 153
0.624938 -0.032434 0.540391 76 0 153
-0.662241 0.029242 -0.027131 76 0 153
0.584743 0.031903 -0.438700 76 0 153
0.708312 -0.032436 -0.191229 76 0 153
0.305236 -0.032436 0.495542 76 0 153
-0.700905 0.018901 0.199821 76 0 153
-0.361785 0.018901 -0.125882 0 127 127
0.192969 0.018901 0.084100 76 0 153
0.779733 0.030961 -0.401974 76 0 153
0.303372 0.015636 -0.560816 76 0 153
0.770364 -0.032436 0.174597 76 0 153
0.554515 0.035213 -0.552587 76 0 153
0.771794 0.023729 -0.219156 76 0 153
0.337096 0.031707 -0.402832 76 0 153
0.504191 0.011016 0.580032 76 0 153
0.499464 -0.032436 -0.071213 76 0 153
-0.803481 -0.032019 0.096376 76 0 153
-0.603019 0.029242 0.059314 127 127 0
-0.015963 -0.032436 0.531457 76 0 153
-0.258890 0.027792 -0.163077 76 0 153
0.833319 0.031903 0.154472 76 0 153
0.243759 -0.032436 0.034671 76 0 153
-0.317054 -0.032423 0.560650 76 0 153
0.633022 -0.032436 -0.074710 76 0 153
-0.525635 0.028741 0.010169 0 255 0
0.122807 0.029847 -0.252022 76 0 153
0.761162 0.029242 0.185674 127 127 0
0.691864 0.031903 -0.449606 76 0 153
0.334715 -0.032436 0.065482 76 0 153
0.310346 -0.032436 0.333263 76 0 153
-0.007204 0.018901 -0.159474 0 0 255
-0.254597 -0.032436 -0.342127 76 0 153
0.664223 0.018901 -0.043809 76 0 153
-0.513310 -0.032436 0.154640 76 0 153
-0.225560 0.029242 -0.184169 76 0 153
0.253872 0.023750 0.222397 255 0 0
0.625882 -0.032436 0.120183 76 0 153
-0.280615 -0.032436 -0.464180 76 0 153
-0.031271 0.022557 -0.393123 76 0 153
0.690722 -0.022653 -0.558109 76 0 153
0.852082 0.030737 -0.242094 76 0 153
-0.098858 -0.032436 -0.317962 76 0 153
0.791873 0.031903 0.504297 76 0 153
-0.500012 -0.032436 0.107149 76 0 153
-0.312717 0.018901 0.083706 76 0 153
0.846027 -0.026435 0.171454 76 0 153
-0.694895 -0.009860 -0.542043 76 0 153
0.666349 0.031903 -0.412884 76 0 153
-0.649277 0.029242 -0.097091 76 0 153
-0.657609 -0.032436 0.447840 76 0 153
-0.505115 0.018901 0.093323 76 0 153
0.210529 -0.032436 -0.529910 76 0 153
-0.517521 0.031903 -0.357658 76 0 153
-0.211878 0.019071 0.079603 76 0 153
0.012170 0.018901 0.116168 76 0 153
-0.009334 -0.032436 0.283947 76 0 153
-0.325450 0.028113 0.351310 76 0 153
-0.681424 0.020386 0.156998 127 0 127
0.474103 0.029242 0.044726 204 51 127
0.101748 -0.020172 -0.557670 76 0 153
0.741340 0.031903 -0.260050 76 0 153
0.437754 -0.032436 -0.090049 76 0 153
0.085525 -0.032436 -0.085092 76 0 153
0.495287 0.031903 -0.445634 76 0 153
0.416314 -0.032436 0.041246 76 0 153
0.099898 -0.032436 -0.452936 76 0 153
0.004449 -0.032436 0.003854 76 0 153
-0.784056 -0.032436 0.467535 76 0 153
-0.130721 0.018901 -0.034110 76 0 153
0.332972 -0.032436 0.229008 76 0 153
-0.545507 -0.032436 0.314701 76 0 153
-0.767422 0.023894 0.039326 76 0 153
-0.050293 0.019993 -0.564184 76 0 153
-0.076130 -0.032436 -0.185592 76 0 153
-0.644333 -0.032436 -0.451505 76 0 153
0.841718 0.031903 -0.317648 76 0 153
-0.219919 -0.032436 -0.023529 76 0 153
-0.024025 -0.032436 0.175304 76 0 153
0.314668 -0.032436 -0.013343 76 0 153
0.673562 -0.032436 -0.488665 76 0 153
-0.465941 0.031903 0.293333 76 0 153
0.399596 -0.032436 0.484276 76 0 153
0.718075 -0.032436 0.273691 76 0 153
0.435227 0.023912 0.115671 76 0 153
-0.125652 0.031903 -0.316527 76 0 153
0.373994 -0.032436 -0.321567 76 0 153
-0.423702 0.029242 -0.166754 76 0 153
0.687611 -0.032436 -0.216619 76 0 153
0.399882 0.029242 0.264355 76 0 153
0.041927 -0.032436 0.368957 76 0 153
0.701252 0.029242 -0.128937 127 127 0
0.249003 -0.032436 0.281161 76 0 153
0.114606 0.031903 0.450559 76 0 153
0.394729 -0.032436 -0.299589 76 0 153
-0.403793 0.018901 0.246265 76 0 153
-0.064322 -0.032436 -0.249830 76 0 153
0.271441 0.021290 -0.542043 76 0 153
0.531205 -0.025161 -0.557518 76 0 153
-0.151801 0.018901 0.190519 76 0 153
-0.311872 0.025028 -0.052456 0 255 0
0.023489 -0.032436 -0.499072 76 0 153
0.337864 0.031903 -0.516243 76 0 153
-0.518720 -0.032436 -0.085536 76 0 153
-0.288672 -0.032436 0.399759 76 0 153
0.053680 -0.030988 0.572554 76 0 153
0.593765 0.027230 0.561351 76 0 153
0.505281 -0.032436 0.410896 76 0 153
-0.358328 0.029242 -0.048937 255 0 0
-0.355579 0.018901 0.182400 153 76 0
0.799382 0.010749 0.580113 76 0 153
-0.787221 -0.032436 0.354779 76 0 153
0.702810 0.031903 0.386810 76 0 153
-0.485603 -0.032436 -0.316504 76 0 153
0.632755 -0.032436 0.463471 76 0 153
-0.635220 0.035242 -0.552805 76 0 153
-0.612880 0.018901 0.115952 76 0 153
0.435631 0.031903 -0.300630 76 0 153
-0.627869 -0.032436 -0.384238 76 0 153
0.425620 0.031903 0.533062 76 0 153
0.674657 0.029242 0.041992 76 0 153
0.450298 0.031903 -0.501306 76 0 153
-0.626623 -0.032436 -0.181301 76 0 153
0.431542 0.031903 0.322973 76 0 153
-0.648162 -0.032427 0.552721 76 0 153
-0.300496 0.004535 0.581393 76 0 153
0.480294 -0.032436 0.234280 76 0 153
0.464348 -0.032436 0.043413 76 0 153
-0.154664 -0.032436 0.036511 76 0 153
0.851780 -0.023319 -0.363397 76 0 153
-0.634031 0.029242 0.148668 127 0 127
0.306344 0.031903 -0.283816 76 0 153
0.417190 -0.032436 -0.397419 76 0 153
-0.716427 0.029242 -0.050957 76 0 153
0.176589 0.031903 0.330849 76 0 153
-0.048585 0.020237 -0.230337 76 0 153
0.755649 -0.032436 0.201652 76 0 153
-0.372174 -0.032436 -0.187933 76 0 153
0.431487 0.031903 0.483773 76 0 153
0.066903 0.018901 0.231971 76 0 153
0.451826 0.018901 0.134018 76 0 153
-0.010150 -0.032436 0.199072 76 0 153
0.645829 0.031903 0.333605 76 0 153
-0.713095 -0.032436 -0.185548 76 0 153
0.595599 0.018901 0.080523 76 0 153
-0.343694 0.018901 -0.024373 76 0 153
-0.011308 0.031903 0.433123 76 0 153
-0.775688 0.031903 0.360919 76 0 153
-0.265124 0.018901 -0.212708 76 0 153
0.224990 0.030965 -0.542043 76 0 153
-0.408780 0.031903 -0.337406 76 0 153
-0.634936 0.018901 -0.019095 76 0 153
0.846266 -0.026314 0.539580 76 0 153
0.692908 0.031903 0.329478 76 0 153
0.639294 -0.032436 0.257654 76 0 153
0.496364 0.031903 -0.479491 76 0 153
0.631800 0.031903 0.387059 76 0 153
0.735431 0.031903 -0.449248 76 0 153
0.842235 0.031903 -0.466646 76 0 153
-0.625556 -0.032436 -0.432170 76 0 153
-0.418325 0.018901 0.125765 76 0 153
0.209529 -0.032436 -0.321402 76 0 153
-0.483287 -0.032436 -0.092030 76 0 153
0.235998 -0.020429 0.580808 76 0 153
0.000280 0.031903 0.482851 76 0 153
0.284021 0.018901 0.004440 76 0 153
0.866709 0.014338 -0.284288 76 0 153
0.804128 -0.032436 0.509856 76 0 153
-0.329801 0.018588 -0.542043 76 0 153
-0.179083 -0.032436 0.346518 76 0 153
0.122680 0.018901 0.079218 76 0 153
0.265232 -0.032436 -0.536909 76 0 153
-0.449821 0.031903 -0.271132 76 0 153
0.077322 0.018901 0.147641 76 0 153
-0.279414 0.028113 0.382987 76 0 153
0.140951 -0.032436 -0.235378 76 0 153
0.637567 -0.032436 -0.225897 76 0 153
-0.565804 -0.032436 -0.434057 76 0 153
-0.366553 0.024682 0.271533 76 0 153
0.621333 0.013279 -0.554419 76 0 153
0.288635 -0.032436 0.049338 76 0 153
-0.361315 -0.032436 0.416666 76 0 153
0.170718 0.018901 -0.197817 0 255 0
-0.293882 -0.032436 0.340557 76 0 153
-0.669053 -0.032436 -0.453148 76 0 153
-0.687816 -0.032436 0.521824 76 0 153
0.352836 0.029242 0.230232 0 255 0
0.765757 -0.032436 -0.528094 76 0 153
-0.026656 0.029242 -0.091610 76 0 153
-0.643190 -0.032436 0.325616 76 0 153
-0.059069 0.031903 -0.352128 76 0 153
-0.502512 -0.018668 0.580808 76 0 153
-0.382822 0.029242 -0.086438 0 127 127
-0.633376 0.003219 0.581481 76 0 153
0.284430 -0.021952 -0.558048 76 0 153
-0.259939 -0.032436 -0.245666 76 0 153
0.217496 0.018901 0.076987 76 0 153
0.434355 -0.032436 0.480688 76 0 153
-0.657958 -0.032436 0.142001 76 0 153
-0.733687 0.018901 0.241312 76 0 153
-0.006384 -0.032436 -0.162262 76 0 153
-0.365516 0.018901 -0.177661 76 0 153
0.668656 0.019212 0.259190 76 0 153
0.339880 -0.032436 -0.312276 76 0 153
-0.544552 -0.032436 -0.271239 76 0 153
-0.535901 0.018901 -0.039709 153 0 76
-0.556947 -0.032436 -0.019096 76 0 153
0.654309 0.018901 0.151689 0 255 0
-0.354438 0.031903 -0.457846 76 0 153
0.620474 0.031903 -0.274844 76 0 153
-0.468576 0.008308 0.580858 76 0 153
0.645763 0.030750 -0.372981 76 0 153
0.343863 -0.032436 -0.535262 76 0 153
-0.169826 0.031903 -0.430473 76 0 153
-0.649640 -0.032436 -0.233856 76 0 153
0.081727 -0.032436 -0.492706 76 0 153
-0.470263 -0.032436 0.362400 76 0 153
-0.178558 0.031222 0.458390 76 0 153
0.667501 -0.032436 0.505076 76 0 153
-0.676925 -0.032436 -0.409325 76 0 153
0.438861 -0.032436 0.378785 76 0 153
-0.369147 -0.032436 0.475618 76 0 153
-0.763275 0.022493 0.204607 76 0 153
0.041223 -0.032436 -0.316192 76 0 153
-0.395817 0.031588 0.302414 76 0 153
-0.841183 -0.011910 0.521077 76 0 153
-0.282452 -0.032436 -0.315428 76 0 153
-0.274173 0.031903 -0.495193 76 0 153
0.528588 -0.032436 -0.289493 76 0 153
0.775709 -0.032436 0.467645 76 0 153
0.475531 0.031903 0.452664 76 0 153
0.158372 0.029242 0.101779 153 76 0
-0.235438 -0.032419 0.566928 76 0 153
-0.244628 -0.032436 0.518622 76 0 153
0.036638 0.031903 -0.441612 76 0 153
0.745835 0.031903 -0.310963 76 0 153
0.665753 0.031903 0.472789 76 0 153
0.337746 0.002862 0.581458 76 0 153
0.799469 -0.032436 0.331748 76 0 153
-0.556641 0.031903 -0.272777 76 0 153
0.758949 0.029584 0.275095 76 0 153
-0.203304 0.027442 0.277761 76 0 153
0.577483 -0.032436 -0.207946 76 0 153
-0.655922 -0.032436 -0.011555 76 0 153
-0.102606 0.024391 -0.239710 76 0 153
-0.132356 -0.032436 -0.418906 76 0 153
-0.844327 0.023023 -0.454021 76 0 153
0.472047 0.026992 0.217796 0 127 127
0.610736 -0.032436 -0.348257 76 0 153
0.113758 -0.032436 0.438111 76 0 153
-0.054129 -0.032428 0.551324 76 0 153
0.264580 0.031903 -0.262230 76 0 153
0.097487 -0.032436 -0.167693 76 0 153
0.125177 -0.032436 0.278777 76 0 153
-0.658305 0.031903 0.494773 76 0 153
-0.412556 0.020537 -0.564409 76 0 153
-0.531367 0.031903 -0.296975 76 0 153
-0.570415 0.031903 0.409795 76 0 153
-0.416501 0.018901 0.165674 76 0 153
0.716195 -0.032436 0.372458 76 0 153
-0.373816 -0.032436 0.246527 76 0 153
0.329480 -0.032436 0.151392 76 0 153
0.456402 0.018826 -0.378897 76 0 153
0.289277 0.031903 0.443274 76 0 153
-0.114043 -0.032436 0.521287 76 0 153
-0.040986 -0.032436 -0.392864 76 0 153
0.074197 0.018901 -0.123057 153 76 0
-0.844230 -0.002000 0.101414 76 0 153
-0.233303 -0.032436 -0.458678 76 0 153
-0.653905 -0.032436 -0.151262 76 0 153
-0.164534 0.031903 -0.508149 76 0 153
0.367108 -0.032436 0.524712 76 0 153
0.509479 -0.032436 -0.239640 76 0 153
-0.075143 0.031903 -0.528552 76 0 153
0.755348 -0.015606 0.580808 76 0 153
0.091246 -0.032436 0.063896 76 0 153
0.709152 0.031903 0.465598 76 0 153
0.548637 0.031903 0.363085 76 0 153
-0.137828 0.029242 -0.172913 153 0 76
-0.145182 -0.032436 -0.254206 76 0 153
-0.782177 0.031903 -0.300866 76 0 153
-0.561860 -0.032436 0.384332 76 0 153
0.599856 -0.013625 0.580808 76 0 153
-0.506250 0.015700 -0.560899 76 0 153
0.752201 0.029242 -0.167522 255 0 0
0.536314 0.025049 0.272361 76 0 153
-0.214132 0.029242 -0.138019 127 127 0
0.381721 0.031903 -0.267048 76 0 153
0.648447 -0.022844 0.579380 76 0 153
0.227942 -0.032436 -0.338889 76 0 153
-0.377475 -0.032436 0.047926 76 0 153
-0.142169 -0.032436 0.344626 76 0 153
0.607103 0.029242 -0.126143 127 0 127
-0.010230 -0.032436 -0.314372 76 0 153
0.188554 0.029242 0.205901 204 51 127
-0.786751 -0.032436 -0.176783 76 0 153
0.718393 -0.032436 -0.469071 76 0 153
0.028913 -0.032436 0.278933 76 0 153
0.003275 -0.032436 0.229907 76 0 153
-0.769460 0.029897 -0.400750 76 0 153
-0.408230 -0.032436 0.415263 76 0 153
-0.082611 -0.032436 -0.419077 76 0 153
-0.170422 -0.032436 -0.010533 76 0 153
-0.754685 0.020806 -0.564520 76 0 153
0.737843 0.018901 -0.041346 76 0 153
0.157221 -0.032436 -0.301418 76 0 153
-0.728258 0.031903 -0.487320 76 0 153
0.610157 -0.032436 0.438527 76 0 153
-0.699366 -0.032436 0.409394 76 0 153
0.051381 0.031903 0.354530 76 0 153
0.802772 -0.032436 0.374358 76 0 153
-0.756824 0.031903 -0.536330 76 0 153
0.601742 0.018901 0.002561 76 0 153
-0.699621 -0.032436 0.352385 76 0 153
-0.388321 0.028113 0.413030 76 0 153
-0.200865 -0.032436 0.275229 76 0 153
0.709755 0.031903 -0.343535 76 0 153
0.297189 -0.032436 0.099142 76 0 153
0.068416 -0.032436 0.479169 76 0 153
0.411727 0.031903 0.305670 76 0 153
-0.014117 0.029242 0.053769 76 0 153
0.816151 -0.032436 0.246129 76 0 153
0.120303 -0.032436 -0.326657 76 0 153
-0.390725 0.010767 0.580108 76 0 153
0.700579 -0.032436 -0.389932 76 0 153
0.575887 0.019079 -0.070095 76 0 153
-0.042205 0.018901 0.179425 76 0 153
-0.533763 -0.032436 -0.159363 76 0 153
-0.403786 0.018901 -0.205791 76 0 153
0.518980 -0.032436 0.013637 76 0 153
-0.516944 -0.032436 -0.191941 76 0 153
0.025928 -0.032436 0.451991 76 0 153
0.669808 0.031903 -0.291095 76 0 153
-0.459723 -0.032436 0.136144 76 0 153
0.517111 0.029242 -0.028830 76 0 153
-0.597435 -0.032436 0.497621 76 0 153
0.584303 0.031903 0.371546 76 0 153
0.159750 0.031903 -0.320291 76 0 153
0.623169 -0.032436 -0.419099 76 0 153
-0.534681 -0.032436 0.416471 76 0 153
-0.363427 -0.032436 -0.098270 76 0 153
0.756120 0.031903 0.493268 76 0 153
0.435837 0.023912 0.162196 76 0 153
0.218537 -0.032436 0.388223 76 0 153
-0.419893 -0.032425 0.555975 76 0 153
0.073517 -0.032436 -0.205374 76 0 153
-0.196937 0.018901 -0.212058 153 0 76
-0.190624 -0.032436 0.022623 76 0 153
-0.388380 -0.032436 -0.012940 76 0 153
-0.226875 -0.032436 0.351012 76 0 153
-0.732430 -0.032436 -0.536229 76 0 153
0.197313 -0.032436 0.094405 76 0 153
-0.166337 -0.026756 -0.556452 76 0 153
0.341510 0.031903 0.337799 76 0 153
0.401936 -0.032436 0.344376 76 0 153
-0.382873 -0.032436 0.140203 76 0 153
-0.822025 -0.027167 0.204415 76 0 153
0.366175 0.018901 0.271527 76 0 153
-0.286448 -0.032436 0.447160 76 0 153
0.692203 0.031903 -0.425360 76 0 153
-0.320954 0.018901 0.006166 76 0 153
0.109605 0.018901 0.042267 76 0 153
-0.413831 -0.032436 -0.093719 76 0 153
0.143674 0.031903 -0.540487 76 0 153
0.665281 0.023155 0.569015 76 0 153
-0.733365 0.017611 -0.542043 76 0 153
0.303647 -0.032436 0.024495 76 0 153
0.052673 0.018901 0.110634 76 0 153
-0.623715 0.018901 0.052123 76 0 153
0.430576 -0.032436 0.100755 76 0 153
0.253262 0.024156 -0.367564 76 0 153
0.711670 -0.032436 -0.355996 76 0 153
-0.826850 -0.024847 -0.295387 76 0 153
-0.429361 0.029242 0.203614 76 0 153
0.637827 0.019304 -0.228233 76 0 153
-0.554112 0.031903 0.368122 76 0 153
0.314908 -0.011734 0.580808 76 0 153
-0.259903 -0.032436 -0.490794 76 0 153
0.651173 0.031903 0.305223 76 0 153
-0.466169 0.029202 -0.399951 76 0 153
0.053911 -0.032436 0.322781 76 0 153
-0.246566 -0.032436 0.042947 76 0 153
0.236225 0.018901 -0.060681 76 0 153
0.571550 -0.032436 -0.499171 76 0 153
0.287326 -0.032436 -0.298227 76 0 153
0.276555 -0.032436 0.247232 76 0 153
0.600047 0.031903 0.519103 76 0 153
0.526762 0.031903 -0.437503 76 0 153
0.244348 -0.032436 -0.127310 76 0 153
-0.349065 0.031903 -0.311313 76 0 153
