ply
format ascii 1.0
element vertex 1244
property float x
property float y
property float z
property uchar red
property uchar green
property uchar blue
end_header
-0.628578 0.509551 -0.517024 204 51 127
-0.467007 -0.120687 -0.128278 204 51 127
-0.643727 -0.182537 -0.160650 153 0 76
0.532138 0.475819 -0.475436 204 51 127
0.194794 0.280434 -0.362170 153 0 76
0.603895 -0.158353 0.565036 153 0 76
-0.619474 -0.198961 -0.046856 153 0 76
-0.205190 -0.160032 0.291204 0 127 127
0.622119 0.128964 -0.273463 204 51 127
-0.264734 -0.156666 0.175067 0 127 127
-0.053197 0.080279 -0.270359 204 51 127
-0.301143 -0.158199 0.593073 153 0 76
0.064872 -0.154853 0.097387 0 127 127
0.580637 0.527371 -0.525405 204 51 127
-0.509677 -0.044409 -0.174621 153 0 76
0.180898 0.383277 -0.421546 153 0 76
0.315757 0.398679 -0.454128 204 51 127
-0.383151 -0.154853 0.357871 0 127 127
-0.137891 0.364440 -0.434355 204 51 127
-0.163175 -0.154853 0.079059 0 127 127
-0.462708 -0.154853 0.397500 0 127 127
0.576626 -0.157670 0.124352 153 0 76
-0.421544 -0.199319 0.420458 153 0 76
-0.261271 -0.172121 -0.173143 153 0 76
-0.397004 -0.199319 0.130361 153 0 76
-0.033854 0.096659 -0.257479 204 51 127
-0.099959 -0.199319 0.028297 153 0 76
0.584185 -0.157643 0.083672 153 0 76
-0.336597 0.416639 -0.440807 153 0 76
0.194313 0.427930 -0.471015 204 51 127
-0.303301 0.482524 -0.502534 204 51 127
0.069275 0.484674 -0.503775 204 51 127
-0.643612 -0.164879 0.319749 153 0 76
-0.063625 0.019835 -0.211713 153 0 76
0.170284 -0.159185 0.542735 153 0 76
0.450899 0.076965 -0.246105 204 51 127
-0.420823 -0.158176 0.421352 153 0 76
-0.390635 0.346206 -0.400786 204 51 127
-0.154740 -0.199319 0.066714 153 0 76
0.201826 -0.155252 0.064287 0 127 127
-0.591324 0.439315 -0.453899 153 0 76
0.048335 0.213354 -0.347136 204 51 127
-0.316986 -0.199319 -0.129417 153 0 76
0.400371 0.041643 -0.224304 153 0 76
-0.586047 0.401656 -0.432157 153 0 76
-0.004354 0.529359 -0.525581 204 51 127
-0.149011 0.353516 -0.404363 153 0 76
-0.180832 -0.088045 -0.173141 204 51 127
0.364154 0.487694 -0.481831 153 0 76
0.434735 0.471551 -0.496214 204 51 127
-0.357939 0.372446 -0.415293 153 0 76
-0.311545 -0.094887 -0.169170 204 51 127
0.626576 -0.036481 -0.179199 153 0 76
0.490322 -0.199319 0.207007 153 0 76
-0.330244 0.034345 -0.220483 204 51 127
0.171564 -0.157782 0.679025 153 0 76
0.092699 0.393896 -0.427676 153 0 76
-0.566786 -0.158279 0.626902 153 0 76
-0.590964 0.088975 -0.275359 204 51 127
-0.485663 0.324172 -0.387422 153 0 76
-0.257362 -0.081676 -0.154520 204 51 127
-0.012351 0.017941 -0.210619 153 0 76
-0.010832 0.228587 -0.332236 153 0 76
0.540386 0.267363 -0.354891 204 51 127
0.565607 -0.129748 -0.125351 153 0 76
0.557970 -0.158067 0.334363 153 0 76
0.548009 -0.154853 0.071746 0 127 127
0.118651 0.490677 -0.483553 153 0 76
-0.324451 0.280324 -0.385803 204 51 127
-0.510279 -0.199319 0.427957 153 0 76
0.258250 0.224444 -0.329844 153 0 76
0.088979 0.237535 -0.359006 204 51 127
0.429780 -0.158175 0.364856 153 0 76
0.447301 0.137466 -0.303318 204 51 127
-0.262074 0.494594 -0.485815 153 0 76
0.268972 0.422887 -0.445825 204 51 127
0.296820 -0.199319 0.387781 153 0 76
-0.009947 -0.124125 -0.128598 153 0 76
0.671839 -0.192477 0.394688 153 0 76
-0.606077 0.543071 -0.522177 204 51 127
0.659386 -0.198336 -0.166929 153 0 76
-0.164586 -0.158760 0.609679 76 0 153
0.237984 -0.199319 0.480921 153 0 76
-0.009600 0.442317 -0.455633 153 0 76
-0.501633 -0.158742 0.534135 153 0 76
0.090441 -0.140327 -0.119243 153 0 76
0.117465 0.038309 -0.222379 153 0 76
0.018771 -0.007781 -0.197190 204 51 127
0.338283 0.001073 -0.200881 153 0 76
0.643166 -0.199196 0.547659 153 0 76
0.029752 -0.199319 0.546103 153 0 76
0.204775 0.240316 -0.358805 204 51 127
-0.054761 0.195109 -0.336614 204 51 127
0.279419 -0.162148 0.734141 153 0 76
0.554329 -0.158326 0.436779 153 0 76
0.377747 -0.158320 0.196787 153 0 76
-0.146209 0.034013 -0.243609 204 51 127
-0.563166 -0.199319 0.124752 153 0 76
-0.241769 -0.199319 0.253431 153 0 76
-0.057683 0.057563 -0.233495 153 0 76
-0.184087 -0.015061 -0.192987 204 51 127
-0.121104 -0.199319 0.570969 153 0 76
-0.541065 0.202296 -0.340744 204 51 127
-0.253710 -0.199319 0.357599 153 0 76
0.317064 0.373055 -0.415644 153 0 76
0.255753 -0.158173 0.691324 153 0 76
0.269526 -0.158185 0.316776 153 0 76
-0.147270 -0.085892 -0.152085 204 51 127
0.022210 -0.156622 0.015385 153 0 76
0.179398 -0.159402 0.064287 0 127 127
0.113295 0.463141 -0.491337 204 51 127
-0.401356 -0.199319 0.341090 153 0 76
-0.179666 -0.199319 0.410078 153 0 76
-0.620473 0.365503 -0.434755 204 51 127
0.023559 0.028961 -0.218396 204 51 127
-0.584326 -0.199319 0.096355 153 0 76
-0.549872 -0.074538 -0.180935 204 51 127
-0.259136 -0.199319 0.192573 153 0 76
0.315832 -0.185867 0.743653 153 0 76
0.442702 -0.199319 0.490568 153 0 76
0.179450 -0.157279 0.305127 0 127 127
0.128372 0.099441 -0.257673 153 0 76
-0.253864 0.432852 -0.473857 204 51 127
0.528279 0.013574 -0.231803 204 51 127
-0.043521 -0.199319 -0.077704 153 0 76
0.542166 0.402528 -0.432661 153 0 76
-0.641264 -0.163100 0.508356 153 0 76
0.493943 -0.158174 0.435062 153 0 76
-0.013142 -0.199319 0.441495 153 0 76
-0.539919 -0.199319 -0.108389 153 0 76
0.589741 0.350250 -0.402478 153 0 76
0.527482 -0.199319 0.568427 153 0 76
0.297233 -0.105613 -0.139285 153 0 76
0.135699 -0.199319 0.376277 153 0 76
-0.410519 0.361503 -0.432659 204 51 127
0.086866 -0.147543 -0.093471 127 0 127
-0.621885 -0.175565 -0.177224 153 0 76
-0.435241 -0.199319 -0.043928 153 0 76
0.130770 0.378978 -0.420483 204 51 127
-0.602316 -0.157224 0.318161 153 0 76
-0.370047 -0.199252 0.703661 153 0 76
-0.454334 0.094638 -0.254900 153 0 76
0.239911 -0.156218 -0.052025 127 0 127
-0.244516 -0.199319 -0.026836 153 0 76
0.460327 -0.199319 -0.114689 153 0 76
-0.001927 -0.199319 0.653690 153 0 76
-0.235888 -0.199319 0.010786 153 0 76
-0.333045 -0.143151 -0.152037 204 51 127
-0.590151 -0.199319 0.506469 153 0 76
0.402115 -0.154853 0.098519 0 127 127
-0.132197 -0.199319 0.648792 153 0 76
0.000883 0.200268 -0.316724 204 51 127
0.162371 -0.197397 -0.178274 153 0 76
-0.392167 -0.158333 0.582354 153 0 76
0.174382 -0.199319 0.643748 153 0 76
-0.189625 0.296348 -0.395050 204 51 127
0.291860 -0.014019 -0.193589 204 51 127
-0.572140 0.469545 -0.471353 153 0 76
0.662549 -0.197058 0.325592 153 0 76
-0.547821 -0.159431 -0.044184 153 0 76
-0.535308 0.216829 -0.325447 153 0 76
-0.202623 0.311889 -0.380330 153 0 76
-0.271452 0.106097 -0.261516 153 0 76
0.331743 0.307476 -0.401475 204 51 127
-0.559528 -0.199319 0.653673 153 0 76
-0.182558 0.442767 -0.479570 204 51 127
-0.605455 0.025260 -0.238550 204 51 127
-0.034296 -0.077847 -0.155316 153 0 76
0.108321 -0.160081 0.419444 0 127 127
-0.516604 -0.199319 0.322322 153 0 76
0.143410 -0.154853 0.398148 0 127 127
-0.271705 -0.199319 0.675164 153 0 76
-0.240974 0.053544 -0.232041 204 51 127
0.555916 -0.156673 0.002671 153 0 76
0.287875 0.407375 -0.459148 204 51 127
0.380336 0.407253 -0.436136 204 51 127
-0.008137 0.318246 -0.407693 204 51 127
0.176729 0.103343 -0.261354 204 51 127
0.567538 0.543887 -0.519939 204 51 127
-0.594140 -0.020411 -0.188477 153 0 76
-0.236093 0.063340 -0.260579 204 51 127
0.068431 -0.135365 -0.122108 153 0 76
0.571431 0.006383 -0.227651 204 51 127
0.147814 0.327353 -0.389258 153 0 76
-0.084807 -0.199319 0.440499 153 0 76
-0.477851 0.295749 -0.394704 204 51 127
-0.197989 0.394811 -0.429624 204 51 127
0.417435 -0.199319 -0.111314 153 0 76
0.162575 0.102240 -0.282992 204 51 127
-0.215553 -0.157038 -0.041820 127 0 127
-0.481921 -0.158665 0.592996 153 0 76
-0.403018 0.509727 -0.491433 204 51 127
0.553048 -0.154853 0.297858 0 127 127
-0.600570 -0.102457 -0.164709 204 51 127
-0.255117 -0.005466 -0.197105 153 0 76
-0.318321 0.020197 -0.235628 204 51 127
-0.371280 -0.150959 -0.082638 127 0 127
0.452074 -0.199319 0.527545 153 0 76
0.227544 0.194381 -0.313199 204 51 127
0.123235 0.277075 -0.360230 153 0 76
0.648122 -0.032915 -0.176832 204 51 127
-0.364100 -0.199319 0.028846 153 0 76
0.155561 -0.177728 0.748171 153 0 76
0.479421 -0.199319 0.530968 153 0 76
-0.401822 -0.158186 0.542152 153 0 76
0.463483 0.358915 -0.407480 153 0 76
0.492830 0.083189 -0.248290 153 0 76
-0.088780 -0.154853 0.072876 0 127 127
0.426616 0.245819 -0.342184 153 0 76
0.149136 -0.199319 0.295676 153 0 76
-0.119161 -0.049258 -0.173235 204 51 127
0.658655 -0.198853 -0.032392 153 0 76
-0.351211 -0.154853 0.347773 0 127 127
0.034009 0.097954 -0.258230 204 51 127
0.618825 -0.158857 0.625191 153 0 76
-0.494371 -0.020094 -0.212350 204 51 127
0.311617 0.040881 -0.247577 204 51 127
-0.569442 -0.199245 0.704528 153 0 76
-0.358897 0.345079 -0.399492 153 0 76
-0.238022 -0.199319 0.628728 153 0 76
-0.413867 0.352481 -0.403766 153 0 76
-0.602891 0.293654 -0.393453 204 51 127
-0.429104 -0.199319 0.229258 153 0 76
-0.436624 -0.157931 0.063830 153 0 76
-0.481647 -0.158176 0.409816 153 0 76
0.552295 0.298823 -0.373037 204 51 127
0.290537 0.331799 -0.415513 204 51 127
-0.426033 -0.157069 0.017169 153 0 76
-0.524007 -0.158066 0.419454 153 0 76
-0.294293 0.030402 -0.241520 204 51 127
0.553949 0.081625 -0.248787 204 51 127
-0.437460 -0.154853 0.325886 0 127 127
0.524991 -0.157493 0.036671 153 0 76
-0.606575 -0.199180 0.461241 153 0 76
-0.163304 0.235999 -0.356313 204 51 127
-0.250383 -0.047962 -0.172570 153 0 76
0.257390 0.018454 -0.234621 204 51 127
0.438685 0.383633 -0.421751 153 0 76
-0.026562 -0.156581 -0.015114 153 0 76
-0.159588 -0.120742 -0.130551 153 0 76
0.217753 0.461739 -0.490523 204 51 127
-0.020929 0.013614 -0.231827 204 51 127
-0.123080 -0.158177 0.225679 153 0 76
-0.159543 0.444983 -0.458585 204 51 127
0.556206 -0.158946 0.616248 153 0 76
0.188731 -0.199319 0.468642 153 0 76
0.026809 -0.180160 0.746821 153 0 76
0.265950 -0.199319 0.422828 153 0 76
0.383633 -0.158252 0.348745 153 0 76
0.536159 0.522457 -0.523368 204 51 127
-0.150012 -0.199319 0.147371 153 0 76
0.541439 -0.154780 -0.157380 204 51 127
0.596152 0.500922 -0.486729 204 51 127
-0.116502 -0.199298 0.697478 153 0 76
-0.480102 -0.158380 0.711175 153 0 76
0.450793 0.223471 -0.352979 204 51 127
-0.289198 -0.053517 -0.193054 204 51 127
0.538144 0.055422 -0.255992 204 51 127
0.460149 -0.158174 0.513696 153 0 76
-0.102999 -0.157159 0.008185 153 0 76
-0.485814 0.185119 -0.330823 204 51 127
0.525792 -0.199319 0.377803 153 0 76
-0.532712 -0.199319 -0.061693 153 0 76
-0.449551 -0.093027 -0.146552 153 0 76
0.676338 0.042764 -0.231345 204 51 127
-0.503415 0.519111 -0.521983 204 51 127
-0.124613 0.154476 -0.313136 204 51 127
-0.573795 -0.048747 -0.195805 204 51 127
-0.331158 0.376207 -0.417464 153 0 76
0.033488 -0.161237 -0.160605 204 51 127
0.124883 -0.154853 0.245232 0 127 127
0.085267 -0.199160 -0.162740 153 0 76
0.612198 0.149260 -0.310126 204 51 127
-0.519870 -0.158174 0.671590 153 0 76
0.501055 -0.158343 0.177702 153 0 76
-0.477434 0.333512 -0.416501 204 51 127
-0.606389 -0.055885 -0.167996 153 0 76
0.542356 0.097786 -0.280428 204 51 127
0.229399 -0.199319 0.215151 153 0 76
-0.236595 0.363351 -0.433726 204 51 127
-0.012272 -0.159886 0.570874 76 0 153
-0.010191 -0.192432 0.737428 153 0 76
0.146575 -0.014904 -0.191656 153 0 76
-0.116276 -0.199319 0.405217 153 0 76
-0.341556 -0.036476 -0.180627 204 51 127
-0.369474 -0.158175 0.412660 153 0 76
0.027204 0.486492 -0.504821 204 51 127
0.252497 0.174079 -0.320951 204 51 127
0.213702 -0.158169 0.690035 153 0 76
0.523744 -0.199319 0.422246 153 0 76
0.279671 -0.199319 0.622894 153 0 76
0.028578 0.139749 -0.304636 204 51 127
-0.107258 -0.110431 -0.160150 204 51 127
-0.246107 -0.199319 0.657444 153 0 76
-0.269914 -0.158174 0.515443 153 0 76
-0.007377 0.133731 -0.301164 204 51 127
0.278906 -0.136939 -0.121200 153 0 76
-0.259682 -0.103640 -0.141040 204 51 127
-0.227803 -0.199213 -0.159878 153 0 76
0.617329 -0.199318 0.508285 153 0 76
0.335888 0.422439 -0.444156 153 0 76
0.480528 -0.158175 0.300280 153 0 76
0.592590 -0.030321 -0.206444 204 51 127
-0.293746 -0.199319 0.535194 153 0 76
-0.349977 -0.199319 0.673431 153 0 76
0.564030 0.081798 -0.271236 204 51 127
-0.566243 0.146652 -0.308621 204 51 127
-0.428005 -0.149862 -0.087382 127 0 127
-0.575019 0.426941 -0.446755 153 0 76
0.554741 -0.199263 0.702119 153 0 76
-0.244982 0.224729 -0.330008 153 0 76
-0.594889 0.148505 -0.309686 204 51 127
0.627095 -0.199318 -0.003964 153 0 76
-0.582943 -0.084254 -0.175333 204 51 127
0.047453 0.210886 -0.322016 153 0 76
-0.253236 -0.159832 0.250029 0 127 127
-0.560640 0.234683 -0.335755 153 0 76
-0.292575 -0.199319 0.215426 153 0 76
-0.096599 -0.199319 0.090851 153 0 76
-0.060206 0.377000 -0.441606 204 51 127
0.266273 -0.112045 -0.159212 204 51 127
0.026254 -0.158174 0.093578 153 0 76
-0.584785 -0.157113 0.201320 153 0 76
0.289412 -0.156836 0.006397 153 0 76
-0.395624 0.126015 -0.296716 204 51 127
0.003964 -0.199319 0.018111 153 0 76
0.077390 0.044553 -0.249700 204 51 127
0.675386 0.162699 -0.291688 204 51 127
0.237338 0.235942 -0.336482 153 0 76
-0.419905 -0.199319 0.307262 153 0 76
0.198640 0.408406 -0.436054 153 0 76
0.659266 -0.158425 0.036902 153 0 76
-0.065634 -0.157196 0.674256 153 76 0
0.464594 0.463295 -0.467744 153 0 76
0.393553 0.377365 -0.418132 153 0 76
0.342770 0.235710 -0.336348 153 0 76
0.310265 -0.160512 0.419444 0 127 127
0.456839 0.190291 -0.310125 153 0 76
-0.552698 -0.158745 0.585969 153 0 76
0.038271 -0.199319 0.105337 153 0 76
-0.578462 -0.199319 0.615375 153 0 76
0.670725 0.398595 -0.425924 204 51 127
-0.013247 0.205288 -0.342491 204 51 127
0.651342 -0.199109 0.394973 153 0 76
0.196578 0.221330 -0.351753 204 51 127
-0.567231 0.490197 -0.483276 153 0 76
-0.009883 -0.154853 0.402861 0 127 127
0.189768 -0.199319 -0.010383 153 0 76
0.029692 0.062889 -0.237992 204 51 127
0.000779 -0.036712 -0.179066 153 0 76
-0.156116 0.354653 -0.428704 204 51 127
0.472333 0.038326 -0.246100 204 51 127
-0.200677 0.433206 -0.450372 153 0 76
-0.535754 -0.103817 -0.163986 204 51 127
-0.584837 -0.157113 0.121481 153 0 76
0.621503 -0.199318 0.138036 153 0 76
-0.122032 -0.199319 0.175069 153 0 76
-0.297976 -0.160648 0.104228 0 127 127
0.138356 0.087280 -0.274389 204 51 127
-0.122671 -0.199319 0.427911 153 0 76
0.536479 -0.199319 0.313999 153 0 76
-0.602045 -0.051262 -0.194340 204 51 127
0.380059 0.466767 -0.493441 204 51 127
0.223811 -0.199319 -0.011554 153 0 76
0.167132 0.012734 -0.231316 204 51 127
-0.144381 -0.199319 0.450836 153 0 76
0.388926 -0.199319 0.050340 153 0 76
0.171993 0.474433 -0.474174 153 0 76
-0.408953 -0.095262 -0.145261 153 0 76
-0.474609 -0.154853 0.071272 0 127 127
0.094935 -0.154853 0.163254 0 127 127
0.043018 0.279400 -0.361573 153 0 76
-0.564094 -0.165415 -0.090133 153 0 76
-0.028662 -0.199319 0.283424 153 0 76
-0.153598 0.042342 -0.226122 204 51 127
0.273707 -0.154853 0.070386 0 127 127
-0.215691 -0.160132 0.319908 0 127 127
-0.171433 0.266746 -0.375101 204 51 127
0.166665 -0.158396 0.320080 153 0 76
0.279346 -0.199319 0.463940 153 0 76
-0.295424 0.413656 -0.462774 204 51 127
0.645525 0.467992 -0.493924 204 51 127
0.117164 -0.024069 -0.210054 204 51 127
-0.338894 -0.199319 0.637652 153 0 76
-0.374924 0.495620 -0.510073 204 51 127
0.218353 -0.159443 0.724644 153 0 76
-0.021506 0.319962 -0.386411 204 51 127
0.021621 -0.027504 -0.208071 204 51 127
0.065682 0.263221 -0.375939 204 51 127
0.543329 0.447104 -0.458652 204 51 127
-0.221337 0.048357 -0.228180 153 0 76
0.475570 -0.198989 -0.172021 153 0 76
-0.207890 0.110596 -0.264461 204 51 127
-0.318592 -0.199319 0.351720 153 0 76
-0.158088 0.118148 -0.268980 204 51 127
0.590615 -0.159173 0.650047 153 0 76
-0.480927 -0.089449 -0.148618 153 0 76
-0.256132 -0.161719 0.732667 153 0 76
0.525801 -0.143122 -0.152040 204 51 127
-0.646284 0.246233 -0.349090 204 51 127
0.165532 -0.199319 0.671563 153 0 76
-0.187501 0.360557 -0.408428 153 0 76
0.525616 -0.156699 -0.001030 153 0 76
-0.551603 0.500782 -0.487534 204 51 127
0.507845 -0.098420 -0.167119 204 51 127
0.499783 0.344034 -0.398889 153 0 76
0.161628 -0.199319 0.601499 153 0 76
-0.299664 -0.199319 0.275439 153 0 76
-0.182243 -0.129886 -0.125272 153 0 76
-0.268663 -0.199319 0.480796 153 0 76
0.287098 0.153220 -0.288722 153 0 76
-0.248775 0.228417 -0.351935 204 51 127
0.390772 -0.158174 0.253443 153 0 76
-0.511827 0.443111 -0.479768 204 51 127
-0.406156 0.184043 -0.330203 204 51 127
0.564836 -0.156957 -0.022529 153 0 76
0.348523 0.365470 -0.411543 204 51 127
-0.362136 0.257199 -0.372443 204 51 127
-0.081292 -0.144363 -0.099277 127 0 127
0.458649 -0.199232 0.706269 153 0 76
-0.576985 -0.151002 -0.105070 204 51 127
-0.051789 -0.158316 0.439903 153 0 76
-0.123790 0.244018 -0.360943 204 51 127
-0.155957 -0.199319 -0.122988 153 0 76
-0.411545 -0.020674 -0.188325 153 0 76
0.549589 0.141595 -0.282011 153 0 76
0.413552 0.273248 -0.381723 204 51 127
0.678619 -0.186415 -0.063275 153 0 76
-0.259622 -0.199319 0.165291 153 0 76
-0.636592 -0.162161 0.476222 153 0 76
-0.329291 0.324160 -0.388109 204 51 127
0.009800 -0.199319 -0.015303 153 0 76
0.158741 -0.199319 0.489448 153 0 76
-0.330733 0.428867 -0.471556 204 51 127
0.027209 0.008704 -0.206699 204 51 127
0.449380 -0.139924 -0.119476 153 0 76
0.186878 -0.126086 -0.127465 153 0 76
0.060929 -0.199319 0.039290 153 0 76
-0.504266 -0.156973 0.007791 153 0 76
0.424032 0.394427 -0.427983 153 0 76
0.184795 0.007696 -0.206118 204 51 127
-0.140968 -0.019596 -0.188948 153 0 76
-0.244727 0.341730 -0.398203 204 51 127
-0.515762 -0.060206 -0.165501 153 0 76
0.598344 0.538518 -0.504104 204 51 127
0.191964 -0.157628 0.698451 153 0 76
0.333452 -0.199319 0.584109 153 0 76
0.516920 0.392754 -0.450705 204 51 127
-0.141992 -0.150480 -0.155231 204 51 127
0.619243 -0.199318 0.338102 153 0 76
0.410385 -0.040867 -0.200355 204 51 127
-0.423030 0.416965 -0.440995 153 0 76
-0.138730 -0.158341 0.333787 153 0 76
-0.160118 -0.199319 0.230091 153 0 76
0.084816 0.494986 -0.484750 204 51 127
-0.189693 0.324282 -0.411177 204 51 127
0.541791 0.027784 -0.216302 153 0 76
0.446029 0.247646 -0.343500 204 51 127
-0.285533 -0.154853 0.336620 0 127 127
-0.308381 -0.199319 0.667823 153 0 76
0.036383 0.474379 -0.475245 204 51 127
0.303711 0.383146 -0.445156 204 51 127
0.433799 -0.034472 -0.180359 153 0 76
0.333218 -0.158235 0.177569 153 0 76
0.111769 0.311512 -0.403805 204 51 127
0.650295 0.035930 -0.221005 153 0 76
0.404754 -0.063561 -0.163564 153 0 76
0.487980 0.385448 -0.423070 204 51 127
0.303504 -0.199319 0.168154 153 0 76
0.470716 0.295882 -0.371332 204 51 127
0.034976 0.185684 -0.307465 153 0 76
-0.150772 0.536883 -0.524723 204 51 127
0.102786 -0.178854 -0.182494 153 0 76
-0.117712 0.205519 -0.318917 153 0 76
-0.318697 -0.154853 0.211007 0 127 127
-0.261310 0.462180 -0.468516 204 51 127
0.177527 -0.039472 -0.177472 153 0 76
-0.161015 0.114805 -0.290250 204 51 127
0.068319 0.412658 -0.462198 204 51 127
-0.234770 0.116845 -0.291428 204 51 127
0.346598 -0.199319 0.161027 153 0 76
-0.537936 0.107531 -0.262344 153 0 76
-0.373920 0.038582 -0.246250 204 51 127
0.448054 -0.158174 0.491477 153 0 76
-0.230832 -0.163301 0.738102 153 0 76
0.228296 -0.158395 0.707178 153 0 76
-0.129059 -0.157399 0.017098 153 0 76
-0.525851 -0.199319 0.659337 153 0 76
-0.149471 0.288949 -0.390779 204 51 127
-0.147178 -0.141293 -0.104413 127 0 127
0.042988 -0.199319 -0.099668 153 0 76
0.595288 0.235384 -0.336160 153 0 76
-0.501120 -0.199319 0.287483 153 0 76
-0.423786 -0.158334 0.284626 153 0 76
-0.617746 -0.198990 -0.027802 153 0 76
-0.297484 0.231515 -0.334571 204 51 127
0.183651 0.185482 -0.331057 204 51 127
-0.320516 -0.008315 -0.195461 153 0 76
0.140510 -0.160639 0.319908 0 127 127
-0.345773 -0.072147 -0.160008 204 51 127
0.077531 0.207247 -0.320367 204 51 127
-0.292209 -0.199319 -0.058627 153 0 76
0.063233 0.446432 -0.458008 153 0 76
-0.295807 -0.199319 0.324111 153 0 76
0.489825 0.268781 -0.355441 153 0 76
-0.003723 -0.071157 -0.159179 153 0 76
0.161051 0.539806 -0.506218 204 51 127
0.628208 0.461310 -0.466598 153 0 76
0.386451 -0.154853 0.214861 0 127 127
-0.332881 -0.199319 0.564384 153 0 76
-0.586706 0.043930 -0.249340 204 51 127
0.415125 -0.199319 0.503491 153 0 76
-0.615545 -0.157617 0.287109 153 0 76
0.031124 -0.199319 0.036308 153 0 76
0.187838 0.074116 -0.244466 204 51 127
0.452135 -0.199319 0.014151 153 0 76
0.333585 0.515301 -0.493421 204 51 127
0.175262 -0.158228 0.168031 153 0 76
-0.101937 0.205504 -0.338707 204 51 127
0.169714 -0.158638 0.488618 153 0 76
0.071033 -0.173709 -0.175121 153 0 76
-0.115352 -0.199319 0.218939 153 0 76
-0.280027 -0.158174 0.479799 153 0 76
-0.218194 0.127418 -0.297525 204 51 127
-0.273436 -0.158175 0.460408 153 0 76
0.086039 -0.041601 -0.176243 153 0 76
-0.098330 -0.159769 0.587002 76 0 153
-0.219893 -0.199319 0.211593 153 0 76
-0.335466 -0.158174 0.667378 153 0 76
-0.031541 -0.157761 0.656405 153 76 0
-0.086803 -0.199319 0.269764 153 0 76
0.041613 -0.163586 0.739173 153 0 76
-0.369514 -0.069806 -0.161355 204 51 127
-0.075567 0.120257 -0.270943 204 51 127
-0.323312 -0.163602 0.739136 153 0 76
-0.382137 -0.133544 -0.123159 153 0 76
-0.520654 0.511792 -0.495744 153 0 76
-0.597473 -0.157578 0.369616 153 0 76
0.100143 -0.199319 0.153205 153 0 76
-0.446897 -0.199319 0.640545 153 0 76
0.418299 0.335600 -0.394019 153 0 76
0.330774 0.474701 -0.474330 153 0 76
-0.197347 -0.052019 -0.170228 153 0 76
0.592512 -0.199319 0.092188 153 0 76
-0.032022 0.266009 -0.373639 204 51 127
0.499891 -0.037097 -0.202532 204 51 127
0.310952 0.483484 -0.479628 204 51 127
-0.646734 -0.170378 0.368642 153 0 76
-0.222407 -0.199319 0.539690 153 0 76
-0.571645 -0.157329 0.367018 153 0 76
-0.582115 0.355094 -0.405274 153 0 76
-0.190961 -0.158210 0.554733 76 0 153
0.343591 -0.168515 0.743301 153 0 76
0.064006 -0.199319 0.211751 153 0 76
-0.581391 -0.199319 0.416867 153 0 76
0.273113 0.293217 -0.369787 204 51 127
-0.520603 -0.005830 -0.196895 153 0 76
-0.307669 -0.050207 -0.172684 204 51 127
0.463156 -0.002713 -0.198695 153 0 76
-0.202877 -0.153951 -0.072002 127 0 127
0.118929 -0.156728 0.000507 153 0 76
-0.510821 -0.157842 0.059554 153 0 76
0.008906 -0.158230 0.436743 153 0 76
-0.093601 0.057424 -0.233415 153 0 76
-0.056543 0.192473 -0.311923 204 51 127
-0.071129 -0.161046 0.319908 0 127 127
-0.452460 -0.158173 0.138003 153 0 76
0.679498 -0.169114 0.633725 153 0 76
-0.023050 0.167207 -0.296798 153 0 76
-0.495821 0.229824 -0.332950 153 0 76
-0.170759 0.415240 -0.440000 153 0 76
-0.134046 0.504152 -0.514978 204 51 127
0.593977 0.181882 -0.305690 204 51 127
0.591517 -0.134695 -0.152913 204 51 127
-0.295590 -0.199319 0.361476 153 0 76
0.294658 -0.158549 0.599565 153 0 76
0.645848 -0.158403 0.516988 153 0 76
-0.031172 -0.158176 0.118455 153 0 76
0.011632 -0.064784 -0.186557 204 51 127
0.021870 -0.156279 -0.009095 153 0 76
-0.307787 -0.154853 0.079062 0 127 127
-0.494973 -0.157332 -0.028370 153 0 76
0.628004 0.524977 -0.497617 204 51 127
-0.347449 -0.158174 0.639233 153 0 76
0.607261 0.374344 -0.440072 204 51 127
-0.138613 -0.154853 0.285099 0 127 127
0.127598 0.247961 -0.343679 204 51 127
-0.543805 -0.199319 0.563751 153 0 76
-0.407386 0.231345 -0.333828 153 0 76
0.559090 -0.098231 -0.143548 153 0 76
0.493893 0.121167 -0.293920 204 51 127
0.511564 -0.026708 -0.184841 153 0 76
-0.568034 -0.121216 -0.130277 153 0 76
0.558403 -0.199319 0.120915 153 0 76
-0.081447 -0.199319 -0.065161 153 0 76
-0.375788 0.204503 -0.318973 204 51 127
0.135842 0.215446 -0.324648 153 0 76
-0.127782 0.475165 -0.474597 153 0 76
0.425784 0.545159 -0.516357 204 51 127
-0.052008 0.212712 -0.342868 204 51 127
-0.179120 -0.199319 0.138735 153 0 76
-0.188216 -0.199319 0.335080 153 0 76
-0.122602 0.260830 -0.350851 153 0 76
-0.512335 0.486533 -0.481160 153 0 76
0.234482 -0.114955 -0.157525 204 51 127
-0.249240 -0.148526 -0.091503 127 0 127
0.360853 0.112837 -0.265408 153 0 76
-0.495238 -0.199319 0.005710 153 0 76
-0.272088 -0.199319 0.228549 153 0 76
0.404987 -0.018859 -0.190794 204 51 127
0.635387 -0.157394 0.001997 153 0 76
-0.079260 -0.057633 -0.168374 204 51 127
0.127775 0.182839 -0.329508 204 51 127
0.132144 -0.199319 0.168379 153 0 76
-0.496051 -0.158399 0.187965 153 0 76
0.642213 -0.157755 0.391898 153 0 76
0.224633 -0.199319 0.363591 153 0 76
-0.359376 0.306443 -0.400878 204 51 127
-0.473264 -0.199319 0.588482 153 0 76
-0.485263 -0.199319 0.106147 153 0 76
0.438152 0.024361 -0.214326 153 0 76
0.255496 -0.184326 -0.188023 153 0 76
-0.568130 0.482682 -0.502627 204 51 127
-0.524562 0.358524 -0.407255 153 0 76
0.330634 0.356751 -0.429915 204 51 127
-0.264258 -0.199319 0.530228 153 0 76
-0.255688 -0.085203 -0.174790 204 51 127
-0.439583 -0.158177 0.419759 153 0 76
0.260419 -0.136985 -0.152673 204 51 127
0.658398 0.496976 -0.481859 204 51 127
-0.126278 0.181304 -0.304937 153 0 76
0.047207 0.106547 -0.285479 204 51 127
-0.263946 -0.154853 0.381067 0 127 127
-0.457060 0.194169 -0.336043 204 51 127
0.207769 -0.199319 -0.001728 153 0 76
0.576409 0.336990 -0.394822 153 0 76
-0.212441 0.545233 -0.514901 204 51 127
-0.463162 -0.199319 0.140613 153 0 76
-0.123840 -0.157461 0.696339 153 0 76
-0.002720 -0.005353 -0.220866 204 51 127
-0.091018 0.526607 -0.525089 204 51 127
0.316062 0.309089 -0.378986 204 51 127
-0.075896 -0.159679 0.506358 76 0 153
0.303922 -0.051490 -0.171940 204 51 127
0.029989 -0.160042 0.379503 0 127 127
-0.006264 0.230815 -0.357218 204 51 127
-0.369690 0.059685 -0.258462 204 51 127
-0.009660 -0.154853 0.293001 0 127 127
-0.399383 0.383510 -0.421681 153 0 76
-0.375174 0.431485 -0.449378 153 0 76
-0.399012 0.420982 -0.443314 153 0 76
0.139769 -0.154853 0.157135 0 127 127
0.437782 0.464455 -0.468414 153 0 76
-0.411892 -0.199319 0.598037 153 0 76
0.010897 -0.157547 0.710030 153 0 76
-0.603914 0.051351 -0.253568 204 51 127
-0.634644 0.264252 -0.347779 204 51 127
0.561468 -0.199319 -0.096457 153 0 76
-0.521840 -0.174450 -0.176044 153 0 76
-0.647002 -0.170400 -0.060177 153 0 76
-0.130765 0.110578 -0.264103 153 0 76
0.054324 0.303416 -0.399131 204 51 127
0.645695 0.191178 -0.334174 204 51 127
0.062929 0.104557 -0.260627 153 0 76
-0.463343 0.522423 -0.523355 204 51 127
-0.555203 -0.158174 0.667162 153 0 76
-0.132974 -0.199319 0.268456 153 0 76
0.677252 -0.165847 0.145523 153 0 76
-0.490665 -0.158824 0.556124 153 0 76
0.557471 -0.008175 -0.219235 204 51 127
0.613162 -0.157110 0.244488 153 0 76
-0.599181 0.284323 -0.364415 153 0 76
-0.355234 -0.105782 -0.139475 204 51 127
-0.012377 -0.199319 0.515490 153 0 76
0.136099 -0.116716 -0.132875 153 0 76
-0.357919 -0.199319 0.358295 153 0 76
0.118898 -0.199319 0.342646 153 0 76
0.345727 -0.199319 0.101097 153 0 76
-0.368828 -0.154853 0.092660 0 127 127
0.064892 0.123067 -0.271313 153 0 76
0.239084 0.099585 -0.257756 153 0 76
0.646453 0.263417 -0.352345 153 0 76
-0.209241 -0.199319 0.490010 153 0 76
-0.035048 0.371038 -0.438164 204 51 127
0.328179 -0.107643 -0.161766 204 51 127
-0.167995 -0.076931 -0.157255 204 51 127
0.428880 0.204265 -0.341883 204 51 127
0.222164 0.496958 -0.487179 153 0 76
-0.645009 0.379821 -0.415534 204 51 127
0.670626 0.523956 -0.498862 204 51 127
-0.532690 -0.158174 0.458968 153 0 76
0.495570 -0.158669 0.595659 153 0 76
-0.026842 -0.199319 0.596920 153 0 76
-0.167311 0.312397 -0.380623 153 0 76
-0.297844 -0.035289 -0.181311 204 51 127
-0.330881 -0.092049 -0.147117 153 0 76
0.348947 -0.158281 0.585512 153 0 76
-0.614941 0.109356 -0.259076 204 51 127
0.198042 -0.199319 0.438180 153 0 76
0.251269 -0.158292 0.511197 153 0 76
-0.270156 0.516505 -0.494294 204 51 127
-0.053360 0.487736 -0.505538 204 51 127
-0.627397 0.218417 -0.349552 204 51 127
0.319593 -0.199319 -0.054435 153 0 76
-0.647009 -0.183961 0.456435 153 0 76
-0.487111 -0.199319 0.536492 153 0 76
-0.425851 -0.158235 0.174469 153 0 76
-0.318312 -0.158174 0.678760 153 0 76
-0.363430 -0.158409 0.207098 153 0 76
-0.574373 -0.199319 0.456521 153 0 76
-0.204304 -0.083758 -0.151904 153 0 76
-0.033729 0.138953 -0.280485 153 0 76
0.589818 0.103445 -0.259985 153 0 76
0.290271 -0.154141 -0.070488 127 0 127
0.449805 0.415755 -0.440297 153 0 76
-0.418016 0.382365 -0.421019 153 0 76
-0.025047 -0.199319 0.132832 153 0 76
0.045321 -0.199319 0.599988 153 0 76
0.306367 -0.199319 0.110823 153 0 76
0.521279 -0.195648 0.729770 153 0 76
-0.215711 0.483541 -0.479433 153 0 76
-0.178122 0.374437 -0.440126 204 51 127
-0.272454 0.012426 -0.231142 204 51 127
0.537710 0.224573 -0.329918 153 0 76
0.238418 -0.104790 -0.140200 204 51 127
-0.288278 0.078959 -0.269596 204 51 127
-0.562175 -0.158176 0.435969 153 0 76
0.402543 -0.199318 0.690737 153 0 76
0.148633 -0.149047 -0.089734 127 0 127
-0.574497 -0.199319 0.028373 153 0 76
0.104082 -0.199319 0.260109 153 0 76
-0.469981 0.188081 -0.308850 153 0 76
-0.503066 -0.199319 0.464576 153 0 76
0.306538 0.336629 -0.394871 204 51 127
-0.603142 -0.199238 0.527083 153 0 76
0.019970 -0.163982 0.740483 153 0 76
-0.557528 0.103185 -0.283537 204 51 127
-0.547093 -0.199319 0.108120 153 0 76
-0.494901 0.004883 -0.203080 153 0 76
0.288727 0.481018 -0.501668 204 51 127
0.678610 -0.161044 -0.091827 153 0 76
-0.098250 0.118481 -0.292372 204 51 127
0.619645 -0.157110 0.216931 153 0 76
0.041227 -0.199146 0.717873 153 0 76
0.671223 0.251196 -0.343532 204 51 127
-0.174565 0.334175 -0.394447 204 51 127
0.238239 -0.160420 0.219160 0 127 127
0.643220 -0.158361 0.498563 153 0 76
0.173256 -0.199319 0.261319 153 0 76
-0.291202 0.529136 -0.525607 204 51 127
-0.209536 0.326848 -0.388966 153 0 76
-0.212827 -0.199319 0.623317 153 0 76
0.109253 -0.199319 0.102816 153 0 76
0.072411 0.382983 -0.421376 153 0 76
0.680053 0.461120 -0.477334 204 51 127
0.573062 -0.020110 -0.212341 204 51 127
-0.052140 -0.073326 -0.157926 153 0 76
0.638505 0.424219 -0.468758 204 51 127
-0.429766 0.060432 -0.235414 204 51 127
0.010370 -0.155182 0.239297 0 127 127
-0.066266 -0.195360 -0.181336 153 0 76
-0.144377 -0.166317 -0.165912 153 0 76
-0.116247 0.279184 -0.361448 153 0 76
-0.097915 -0.199319 0.239009 153 0 76
0.070215 -0.064481 -0.164419 204 51 127
0.584845 0.125556 -0.273935 204 51 127
-0.530361 0.168521 -0.321246 204 51 127
-0.250964 -0.199319 0.460099 153 0 76
-0.634120 -0.160922 0.177532 153 0 76
0.333586 -0.158311 0.138212 153 0 76
0.343714 0.249000 -0.367696 204 51 127
0.647858 0.422107 -0.443964 153 0 76
0.405697 -0.107077 -0.162095 204 51 127
-0.620557 -0.073524 -0.152560 204 51 127
0.229382 0.036374 -0.244973 204 51 127
0.674308 0.070457 -0.256522 204 51 127
0.178950 0.421333 -0.443518 153 0 76
-0.087719 0.461965 -0.466976 153 0 76
0.260477 0.256320 -0.348247 153 0 76
-0.008131 -0.172883 -0.174092 153 0 76
-0.204309 -0.199319 -0.036465 153 0 76
-0.329890 -0.199318 0.693498 153 0 76
0.517530 -0.199319 -0.075248 153 0 76
-0.523773 -0.065724 -0.186015 204 51 127
-0.497727 -0.165963 -0.088644 127 0 127
-0.048727 0.254860 -0.347404 153 0 76
0.636509 -0.196517 0.727494 153 0 76
-0.643315 0.353166 -0.403483 204 51 127
-0.197390 -0.199319 0.232311 153 0 76
0.206632 -0.199319 0.503149 153 0 76
0.215085 -0.199319 0.479718 153 0 76
0.662244 -0.197225 0.113268 153 0 76
-0.026279 -0.199319 0.162068 153 0 76
-0.121989 0.416010 -0.441857 204 51 127
-0.482138 0.374771 -0.440319 204 51 127
0.547688 -0.199319 0.474865 153 0 76
0.600875 0.039882 -0.223287 153 0 76
0.109354 -0.199319 0.047745 153 0 76
0.281726 0.357384 -0.430281 204 51 127
-0.110588 0.274446 -0.380269 204 51 127
0.171986 -0.158521 0.206948 153 0 76
-0.363503 0.320296 -0.385961 204 51 127
0.286304 0.256948 -0.372317 204 51 127
-0.344963 0.146946 -0.285355 204 51 127
-0.086273 -0.161403 0.732120 153 0 76
0.066392 0.520026 -0.495750 204 51 127
0.381026 0.320267 -0.385167 153 0 76
0.092836 0.420018 -0.466447 204 51 127
0.669760 0.342573 -0.393373 204 51 127
0.274389 -0.199319 0.644064 153 0 76
0.421615 -0.198956 -0.173799 153 0 76
-0.031021 -0.199319 -0.127552 153 0 76
-0.010621 0.000660 -0.202059 204 51 127
0.068934 0.270917 -0.357994 204 51 127
0.307347 -0.158239 0.700019 153 0 76
-0.519662 0.062607 -0.260154 204 51 127
-0.498705 0.119045 -0.268992 153 0 76
0.160482 -0.154853 0.269473 0 127 127
-0.248910 -0.158334 0.635450 153 0 76
0.503751 -0.157439 0.419444 0 127 127
0.493181 -0.199319 0.513795 153 0 76
-0.279627 -0.131811 -0.124160 153 0 76
-0.383558 -0.158174 0.455178 153 0 76
-0.007960 -0.148999 -0.090449 127 0 127
0.213686 0.444729 -0.457025 153 0 76
0.073913 0.467873 -0.470387 153 0 76
0.089270 0.104560 -0.284331 204 51 127
0.006096 -0.132094 -0.153182 204 51 127
-0.220994 0.077215 -0.268589 204 51 127
0.628673 -0.199318 0.608914 153 0 76
0.110142 -0.199319 0.320879 153 0 76
0.026632 0.220758 -0.328497 204 51 127
-0.230641 0.026162 -0.239070 204 51 127
-0.618289 -0.157698 0.083534 153 0 76
-0.116189 -0.153085 -0.156533 204 51 127
0.513167 -0.170019 0.744111 153 0 76
0.100281 0.195873 -0.334204 204 51 127
-0.540417 -0.157264 -0.025492 153 0 76
-0.536218 -0.069606 -0.160074 153 0 76
-0.274326 -0.199150 -0.163294 153 0 76
-0.441504 -0.158175 0.086041 153 0 76
-0.544157 0.124485 -0.272132 153 0 76
-0.627904 -0.158756 0.020740 153 0 76
-0.130609 0.054415 -0.255410 204 51 127
0.054837 0.052590 -0.232040 204 51 127
-0.277043 -0.156533 0.099217 0 127 127
0.591866 0.453468 -0.462070 153 0 76
-0.307489 0.448661 -0.482962 204 51 127
-0.112823 0.500868 -0.489437 153 0 76
-0.577863 -0.158173 0.678856 153 0 76
0.410109 0.303071 -0.398931 204 51 127
0.606524 -0.199319 0.562066 153 0 76
-0.323229 -0.158174 0.583523 153 0 76
0.555900 -0.199319 -0.074877 153 0 76
0.339544 -0.150782 -0.083159 127 0 127
-0.149040 -0.022219 -0.211123 204 51 127
0.648547 0.042143 -0.248075 204 51 127
-0.378465 0.255092 -0.347538 153 0 76
-0.241523 0.326043 -0.389155 204 51 127
-0.276889 -0.192679 0.736838 153 0 76
-0.174103 0.297032 -0.373154 204 51 127
0.095730 0.325095 -0.389371 204 51 127
0.310003 -0.158173 0.273301 153 0 76
-0.377948 0.288912 -0.367064 153 0 76
0.077224 -0.159769 0.606492 153 0 76
0.347586 -0.199319 0.365535 153 0 76
-0.446477 -0.199319 -0.129179 153 0 76
0.059308 -0.199317 -0.143645 153 0 76
0.051754 -0.199319 0.422444 153 0 76
0.341855 -0.158341 0.114451 153 0 76
-0.046107 0.027444 -0.239810 204 51 127
-0.488643 -0.199319 0.086918 153 0 76
-0.647738 -0.172290 0.225568 153 0 76
0.618504 -0.157418 0.104715 153 0 76
-0.035335 -0.199319 0.537428 153 0 76
-0.099039 -0.127339 -0.126742 153 0 76
0.415872 0.351738 -0.427021 204 51 127
0.179877 -0.199319 0.128120 153 0 76
-0.024227 0.296652 -0.371533 153 0 76
0.232785 -0.158175 0.474555 153 0 76
0.439327 -0.163164 0.737632 153 0 76
0.249236 -0.199319 0.453692 153 0 76
0.571769 -0.199318 -0.133661 153 0 76
0.590306 -0.158734 0.683469 153 0 76
-0.379502 0.410553 -0.460983 204 51 127
-0.447001 0.128088 -0.274212 153 0 76
0.130383 -0.164009 -0.163036 153 0 76
0.052851 0.023897 -0.237762 204 51 127
-0.359646 -0.158174 0.498227 153 0 76
-0.317785 0.525698 -0.524712 204 51 127
0.060703 -0.199319 -0.071672 153 0 76
0.415133 0.153080 -0.288641 153 0 76
-0.200821 -0.070747 -0.183120 204 51 127
0.477182 -0.199319 0.257472 153 0 76
0.117066 -0.138961 -0.120032 153 0 76
-0.408156 -0.151462 -0.080802 127 0 127
-0.451444 -0.129841 -0.125298 153 0 76
0.300773 -0.199319 0.361630 153 0 76
-0.329900 -0.192475 0.737324 153 0 76
0.458515 0.406732 -0.458777 204 51 127
0.007144 -0.199319 0.618854 153 0 76
0.375955 -0.157092 0.020367 153 0 76
-0.069057 -0.199319 0.261905 153 0 76
-0.498704 -0.160925 -0.050130 153 0 76
-0.101043 0.229411 -0.333356 204 51 127
-0.089585 -0.087124 -0.151374 204 51 127
0.445026 -0.199317 -0.145133 153 0 76
-0.586517 -0.199319 -0.099329 153 0 76
-0.438272 -0.199319 -0.025899 153 0 76
0.527676 0.501958 -0.490066 153 0 76
0.600768 0.419841 -0.442656 153 0 76
0.432853 0.006821 -0.204199 153 0 76
0.668297 0.411937 -0.458085 204 51 127
0.042631 -0.159977 0.570327 76 0 153
-0.253219 -0.158344 0.599981 153 0 76
-0.606424 0.063702 -0.237039 153 0 76
0.083061 0.097178 -0.256367 153 0 76
-0.468358 -0.159021 0.209325 0 127 127
-0.352135 -0.199319 -0.058751 153 0 76
0.605432 -0.199319 0.672759 153 0 76
-0.005195 0.306466 -0.377199 153 0 76
0.478764 0.065112 -0.237854 153 0 76
0.028337 -0.134955 -0.114542 204 51 127
0.642587 -0.199202 0.432196 153 0 76
0.166295 -0.134697 -0.122494 153 0 76
0.301505 -0.199319 0.415368 153 0 76
-0.300831 -0.158176 0.436613 153 0 76
-0.434746 0.417167 -0.464802 204 51 127
0.640329 -0.160098 -0.048813 153 0 76
-0.040814 -0.199319 0.324827 153 0 76
0.142924 -0.199319 0.419855 153 0 76
0.291217 -0.031901 -0.205532 204 51 127
0.325565 -0.157614 0.040564 153 0 76
0.072603 0.366268 -0.435410 204 51 127
-0.196468 -0.199319 0.038441 153 0 76
-0.113591 -0.191145 0.740492 153 0 76
-0.603679 -0.199233 0.666224 153 0 76
0.359101 -0.158174 0.476585 153 0 76
0.591177 -0.158246 0.438068 153 0 76
0.016997 0.258572 -0.349547 153 0 76
-0.468039 -0.199319 0.205840 153 0 76
-0.646548 -0.184767 0.241710 153 0 76
0.557441 -0.065223 -0.186304 204 51 127
-0.179246 -0.158215 0.123683 153 0 76
0.239261 -0.199319 0.178696 153 0 76
-0.416488 -0.157661 0.051527 153 0 76
-0.593045 0.182254 -0.305485 153 0 76
-0.348638 0.389113 -0.424915 153 0 76
-0.513784 -0.154853 0.153293 0 127 127
-0.410455 -0.158341 0.260674 153 0 76
0.291835 0.530254 -0.500231 204 51 127
-0.554914 0.360094 -0.408161 153 0 76
-0.394753 0.395511 -0.452298 204 51 127
-0.437984 0.248002 -0.343445 153 0 76
-0.326032 -0.154853 0.384900 0 127 127
0.031062 0.082412 -0.249240 204 51 127
0.542919 0.381216 -0.420356 153 0 76
0.415401 0.221286 -0.328020 153 0 76
-0.274290 0.259094 -0.349849 153 0 76
0.674676 -0.163563 0.121040 153 0 76
0.135697 0.403796 -0.433392 153 0 76
-0.633196 -0.160600 0.073164 153 0 76
0.391041 0.421726 -0.444572 204 51 127
0.144867 0.038486 -0.246192 204 51 127
0.261310 -0.199319 0.001154 153 0 76
-0.491181 -0.158179 0.344224 153 0 76
-0.274365 0.135639 -0.278572 153 0 76
-0.114383 -0.199319 0.094571 153 0 76
-0.275973 0.354807 -0.428793 204 51 127
0.676304 0.000017 -0.199567 204 51 127
-0.368028 -0.199319 0.422697 153 0 76
-0.067764 -0.156880 -0.010151 153 0 76
0.220207 0.311875 -0.404015 204 51 127
0.223410 -0.158175 0.438204 153 0 76
-0.321303 -0.199319 0.528464 153 0 76
0.277905 0.355190 -0.405963 204 51 127
-0.226828 0.295137 -0.370658 153 0 76
0.335248 -0.199319 0.609449 153 0 76
0.270931 0.178154 -0.304159 204 51 127
0.643464 0.402560 -0.432679 153 0 76
-0.469007 -0.159785 -0.068465 127 0 127
0.115109 0.345222 -0.423258 204 51 127
-0.187597 -0.013711 -0.216037 204 51 127
-0.098388 -0.159768 0.556432 76 0 153
0.431888 -0.158174 0.672733 153 0 76
0.239271 0.376793 -0.441486 204 51 127
-0.243361 -0.158174 0.483571 153 0 76
-0.597200 0.225630 -0.328236 204 51 127
0.529813 -0.177418 -0.180346 153 0 76
-0.302103 0.356861 -0.407122 204 51 127
0.478777 -0.068029 -0.162378 204 51 127
-0.417409 -0.076678 -0.157401 204 51 127
-0.062736 -0.173013 -0.174255 153 0 76
-0.164546 -0.177166 0.747961 153 0 76
0.127360 0.253541 -0.366440 204 51 127
-0.637062 0.316486 -0.404428 204 51 127
-0.525786 0.391891 -0.426519 153 0 76
0.252888 -0.154853 0.210176 0 127 127
0.454009 -0.199319 0.055130 153 0 76
0.152706 -0.199319 -0.030431 153 0 76
-0.211521 -0.199319 0.379331 153 0 76
0.113869 0.529995 -0.500449 204 51 127
-0.021092 -0.158590 0.636314 153 76 0
0.595354 -0.082980 -0.152656 204 51 127
0.284829 0.430028 -0.472227 204 51 127
-0.083429 -0.199318 -0.138182 153 0 76
0.141414 0.319935 -0.408668 204 51 127
-0.133537 -0.158198 0.194081 153 0 76
-0.420768 -0.199319 0.533373 153 0 76
-0.573967 -0.012171 -0.216926 204 51 127
0.027243 -0.199319 0.371060 153 0 76
0.640867 -0.196834 -0.178953 153 0 76
0.660930 0.147444 -0.308562 204 51 127
0.271929 0.399635 -0.454680 204 51 127
0.612000 -0.022902 -0.187038 153 0 76
0.643107 0.088809 -0.251535 153 0 76
0.488361 -0.199319 -0.089188 153 0 76
-0.634416 -0.194807 0.084903 153 0 76
-0.649703 -0.179108 0.044445 153 0 76
0.636324 -0.101423 -0.165375 204 51 127
-0.390276 -0.199319 0.088187 153 0 76
0.074185 -0.156681 -0.013426 153 0 76
0.657448 -0.112521 -0.129591 204 51 127
-0.607310 0.162635 -0.294159 153 0 76
-0.212782 0.166948 -0.296648 153 0 76
0.310827 0.039277 -0.222938 153 0 76
0.128300 -0.154853 0.176851 0 127 127
0.655688 -0.158149 0.115328 153 0 76
-0.009469 -0.060412 -0.189078 204 51 127
-0.614093 -0.156927 -0.060721 153 0 76
0.423884 -0.158197 0.205703 153 0 76
-0.474335 0.509241 -0.517891 204 51 127
-0.265053 -0.158278 0.402606 153 0 76
0.541395 -0.158605 0.586261 153 0 76
0.350111 0.150905 -0.287386 153 0 76
0.255862 -0.158175 0.439412 153 0 76
-0.145610 -0.094733 -0.169260 204 51 127
-0.360212 0.274569 -0.358784 153 0 76
-0.366941 0.128731 -0.274584 153 0 76
0.094532 -0.157714 0.403048 0 127 127
0.380324 -0.199319 0.232035 153 0 76
0.111894 -0.158229 0.644205 153 0 76
-0.365031 -0.158507 0.286122 153 0 76
0.196176 -0.158300 0.410364 153 0 76
0.304318 -0.199319 0.563814 153 0 76
0.279986 -0.158196 0.634188 153 0 76
0.657731 -0.198875 0.034391 153 0 76
0.658649 0.456745 -0.458532 204 51 127
-0.240910 0.412423 -0.439788 204 51 127
-0.277214 -0.158174 0.499029 153 0 76
-0.576354 0.432531 -0.473671 204 51 127
-0.358216 0.230001 -0.333052 153 0 76
0.518907 0.103599 -0.261502 204 51 127
-0.231453 -0.154853 0.392969 0 127 127
-0.528228 -0.119133 -0.155101 204 51 127
-0.151662 -0.199319 -0.097841 153 0 76
-0.305520 -0.156893 0.000023 153 0 76
0.136329 -0.131411 -0.153251 204 51 127
0.370679 0.125563 -0.296455 204 51 127
-0.473265 0.289699 -0.367519 153 0 76
-0.591896 0.093705 -0.254362 153 0 76
0.068869 -0.150366 -0.084540 127 0 127
0.251255 0.204996 -0.342306 204 51 127
-0.165717 -0.000331 -0.201487 204 51 127
0.235206 -0.199319 0.635427 153 0 76
-0.602695 0.069101 -0.263898 204 51 127
0.555834 -0.199319 0.626297 153 0 76
0.127618 -0.160871 0.210089 0 127 127
0.612570 0.096539 -0.255998 153 0 76
-0.548173 -0.159725 0.195113 0 127 127
0.360778 -0.154853 0.065450 0 127 127
-0.598177 -0.199319 -0.062729 153 0 76
0.669124 -0.161665 0.177877 153 0 76
-0.424758 -0.199319 0.107579 153 0 76
-0.556253 0.508592 -0.517530 204 51 127
0.124128 -0.199319 0.595166 153 0 76
0.382360 0.238441 -0.361614 204 51 127
0.188458 -0.068172 -0.162295 204 51 127
-0.469335 0.273398 -0.358107 153 0 76
0.127729 -0.199319 0.237368 153 0 76
-0.554037 -0.158201 0.248007 0 127 127
-0.410559 -0.199319 0.292004 153 0 76
0.594074 -0.167688 0.742811 153 0 76
0.226274 -0.059446 -0.167322 204 51 127
-0.447560 0.220883 -0.327788 153 0 76
-0.071231 0.247545 -0.343181 153 0 76
-0.411087 0.494753 -0.485906 153 0 76
-0.146363 0.313265 -0.404817 204 51 127
-0.402224 -0.199319 0.481768 153 0 76
-0.630165 -0.023638 -0.209613 204 51 127
0.613175 -0.199319 -0.066508 153 0 76
-0.325057 0.016780 -0.210687 204 51 127
0.199608 -0.015795 -0.214833 204 51 127
0.299937 0.442158 -0.455541 153 0 76
-0.192880 -0.155547 0.226867 0 127 127
0.566383 0.043905 -0.225610 153 0 76
-0.341019 0.345066 -0.399485 153 0 76
-0.079961 -0.155953 -0.063774 127 0 127
-0.050108 -0.199319 0.178561 153 0 76
0.353644 -0.199319 0.117113 153 0 76
0.465915 0.500713 -0.487263 204 51 127
-0.538934 0.154312 -0.289608 204 51 127
-0.634121 0.433796 -0.448214 204 51 127
-0.138357 -0.199319 0.575597 153 0 76
0.107283 0.340523 -0.396862 153 0 76
0.036240 -0.111570 -0.135245 204 51 127
-0.500774 -0.164061 0.740710 153 0 76
-0.117636 -0.199319 0.548994 153 0 76
0.621350 0.016702 -0.209904 153 0 76
0.461265 -0.199319 0.116284 153 0 76
-0.417827 -0.158174 0.676997 153 0 76
-0.193001 -0.117552 -0.132392 153 0 76
-0.414846 -0.199319 0.130833 153 0 76
-0.434640 0.184834 -0.330659 204 51 127
-0.200049 -0.199319 0.129893 153 0 76
0.570356 0.130274 -0.299170 204 51 127
-0.522950 0.270976 -0.380413 204 51 127
-0.462594 -0.157126 0.021963 153 0 76
-0.609136 0.256348 -0.344590 204 51 127
-0.294894 -0.104667 -0.139832 153 0 76
-0.300391 0.114683 -0.266473 153 0 76
-0.650576 -0.178642 0.632787 153 0 76
0.018690 -0.159961 0.573071 76 0 153
0.027081 -0.157368 0.359849 0 127 127
-0.277499 0.485435 -0.480527 153 0 76
-0.462420 -0.199319 0.062208 153 0 76
0.150346 -0.199318 0.690863 153 0 76
-0.634767 0.460555 -0.463137 204 51 127
0.324736 -0.087085 -0.151396 204 51 127
0.494042 -0.157377 0.032128 153 0 76
-0.144266 -0.158968 0.565193 76 0 153
-0.209567 0.207511 -0.343760 204 51 127
0.651573 0.382173 -0.420908 153 0 76
0.507082 -0.043975 -0.174872 153 0 76
-0.037684 -0.131646 -0.153226 204 51 127
-0.437620 -0.199319 0.665191 153 0 76
0.243032 -0.156792 -0.019710 153 0 76
0.200873 -0.005300 -0.198622 204 51 127
0.388395 -0.165437 0.741644 153 0 76
-0.628859 -0.159097 -0.010986 153 0 76
0.384534 -0.156510 -0.046568 127 0 127
0.035089 -0.157699 0.657725 153 76 0
-0.536633 0.200934 -0.316912 204 51 127
-0.169646 0.383419 -0.421628 153 0 76
0.462725 -0.144937 -0.152462 204 51 127
-0.463146 0.375583 -0.417103 153 0 76
0.292365 -0.199319 0.019564 153 0 76
-0.562477 -0.138653 -0.120210 153 0 76
0.624121 0.316765 -0.406837 204 51 127
0.437297 -0.154853 0.088253 0 127 127
0.166027 -0.199319 0.393481 153 0 76
0.559798 0.004787 -0.203025 153 0 76
-0.333006 -0.053872 -0.170557 204 51 127
-0.403625 -0.169453 0.743807 153 0 76
-0.222255 0.487125 -0.505186 204 51 127
0.198222 0.351459 -0.426860 204 51 127
-0.247996 -0.154853 0.298763 0 127 127
-0.256465 -0.199319 0.631615 153 0 76
0.050485 -0.042847 -0.199211 204 51 127
0.283455 -0.154853 0.395089 0 127 127
-0.337139 0.196318 -0.313605 153 0 76
0.650846 -0.179124 0.746610 153 0 76
-0.542036 -0.102522 -0.141312 204 51 127
0.316786 0.206830 -0.343367 204 51 127
-0.643504 0.290089 -0.369143 204 51 127
0.174606 0.150973 -0.287425 153 0 76
0.245423 -0.158769 0.578605 153 0 76
0.204707 -0.199319 0.396627 153 0 76
0.675096 -0.192108 -0.129002 153 0 76
0.660143 -0.198216 0.429629 153 0 76
-0.431489 0.297576 -0.372066 153 0 76
0.336403 -0.199319 0.430237 153 0 76
0.047252 0.000733 -0.224383 204 51 127
-0.024743 -0.154853 0.086241 0 127 127
0.641758 -0.199143 -0.045362 153 0 76
0.215663 0.540182 -0.524346 204 51 127
0.596061 0.084345 -0.248958 153 0 76
-0.582731 -0.199073 -0.167470 153 0 76
-0.505958 0.311763 -0.403950 204 51 127
0.273589 -0.158182 0.336412 153 0 76
0.175910 -0.087066 -0.173709 204 51 127
0.270563 -0.199319 0.592136 153 0 76
0.432512 -0.155820 -0.057363 127 0 127
-0.149701 -0.199319 0.196321 153 0 76
-0.400816 0.097128 -0.280050 204 51 127
0.425455 -0.158033 0.419444 0 127 127
0.218344 -0.161279 0.301471 153 0 76
0.073178 0.012623 -0.207549 153 0 76
-0.288022 0.473606 -0.497400 204 51 127
0.474346 -0.162590 0.735661 153 0 76
0.463309 -0.193115 -0.184713 153 0 76
-0.337468 0.092308 -0.253555 153 0 76
-0.130817 0.386269 -0.423273 153 0 76
-0.519170 -0.199318 0.682736 153 0 76
-0.552912 0.273098 -0.381637 204 51 127
0.188761 -0.158335 0.103924 153 0 76
-0.344356 -0.140589 -0.119092 153 0 76
-0.218711 0.025838 -0.216593 204 51 127
0.376050 0.357225 -0.406505 153 0 76
-0.466080 0.419610 -0.442522 153 0 76
0.584640 0.467480 -0.470160 153 0 76
0.384855 0.509710 -0.494542 153 0 76
0.490348 0.235507 -0.359922 204 51 127
-0.400285 0.133539 -0.277360 153 0 76
-0.403015 0.020648 -0.212182 153 0 76
-0.039761 0.222623 -0.352490 204 51 127
-0.379718 0.522637 -0.496972 204 51 127
0.466869 -0.113270 -0.134865 153 0 76
-0.124111 -0.006432 -0.197969 204 51 127
0.302080 -0.162439 0.735140 153 0 76
0.363144 -0.199319 0.270223 153 0 76
0.291525 0.219453 -0.327225 204 51 127
0.365116 -0.199319 -0.084303 153 0 76
0.518101 0.266728 -0.354524 204 51 127
0.109584 0.406559 -0.436405 204 51 127
0.008479 0.201071 -0.336147 204 51 127
0.487412 0.246089 -0.342601 204 51 127
-0.349778 0.166737 -0.296782 204 51 127
0.421397 -0.158173 0.689184 153 0 76
-0.152442 0.244445 -0.341391 153 0 76
0.283815 -0.029243 -0.184800 204 51 127
0.563951 0.222649 -0.329069 204 51 127
-0.468474 -0.199319 -0.003590 153 0 76
0.204289 -0.199319 0.320804 153 0 76
-0.252032 -0.157839 0.319908 0 127 127
0.614497 -0.199033 -0.169666 153 0 76
-0.086161 0.509447 -0.494390 153 0 76
0.114130 0.098006 -0.280555 204 51 127
-0.269285 0.426214 -0.446335 153 0 76
-0.218976 -0.191890 0.738717 153 0 76
0.154387 0.347380 -0.402236 204 51 127
-0.254167 -0.199319 0.559850 153 0 76
0.489770 0.029897 -0.217522 153 0 76
-0.139404 -0.154853 0.219821 0 127 127
0.638832 0.221293 -0.351595 204 51 127
-0.400919 -0.199319 0.219345 153 0 76
0.018983 -0.108579 -0.137431 204 51 127
0.677370 0.443084 -0.459419 204 51 127
-0.198403 0.181153 -0.304850 153 0 76
0.323449 -0.158263 0.398324 153 0 76
-0.150780 -0.056602 -0.168973 204 51 127
0.312732 0.005997 -0.227428 204 51 127
-0.502276 0.369513 -0.437283 204 51 127
-0.279107 -0.158191 0.320542 153 0 76
