ply
format ascii 1.0
element vertex 1242
property float x
property float y
property float z
property uchar red
property uchar green
property uchar blue
end_header
0.218128 -0.154853 0.167588 0 127 127
0.503944 -0.162234 -0.065695 127 0 127
0.596415 -0.195891 -0.058889 153 0 76
-0.227955 -0.161600 0.465579 153 0 76
0.162261 -0.195891 0.596665 153 0 76
-0.648020 -0.180762 0.064920 153 0 76
-0.376904 -0.195891 -0.020592 153 0 76
0.449904 -0.099141 -0.162820 204 51 127
0.242199 0.021346 -0.212585 204 51 127
0.059620 -0.158210 0.305127 0 127 127
0.211145 -0.161600 0.453811 153 0 76
-0.445590 -0.152662 -0.099049 127 0 127
0.298119 -0.195891 0.654927 153 0 76
0.130863 0.432530 -0.469780 204 51 127
-0.505243 0.249222 -0.348293 153 0 76
0.389445 -0.195891 0.052418 153 0 76
-0.592517 -0.195891 0.293567 153 0 76
0.498788 0.332344 -0.392139 204 51 127
-0.370999 -0.195891 0.696149 153 0 76
0.488554 0.487456 -0.481693 153 0 76
-0.475464 0.493195 -0.489151 153 0 76
0.569467 -0.060333 -0.165428 153 0 76
-0.112245 -0.167581 -0.032529 127 0 127
0.438674 0.065011 -0.237795 153 0 76
-0.395979 0.219637 -0.346866 204 51 127
-0.044098 0.439579 -0.454052 204 51 127
-0.354916 -0.165299 -0.105592 127 0 127
0.318235 0.422669 -0.444289 153 0 76
0.333771 -0.195891 0.736032 153 0 76
0.084163 0.365638 -0.411362 204 51 127
0.320900 0.344617 -0.403369 153 0 76
0.081646 0.101986 -0.259142 153 0 76
-0.417190 -0.132019 -0.143838 204 51 127
0.335695 -0.057507 -0.167059 153 0 76
-0.325915 -0.161600 0.678024 153 0 76
0.381734 -0.171615 -0.120977 153 0 76
-0.064396 0.101611 -0.278724 204 51 127
-0.193767 -0.161600 0.114044 0 127 127
0.045345 0.179336 -0.303800 153 0 76
-0.076777 0.482355 -0.498547 204 51 127
-0.282427 -0.195891 0.359982 153 0 76
0.153195 0.372587 -0.435172 204 51 127
-0.073871 0.111774 -0.264793 204 51 127
-0.649208 0.175597 -0.313092 204 51 127
-0.133255 0.042284 -0.244472 204 51 127
-0.345106 0.511535 -0.495595 153 0 76
-0.076066 -0.171363 -0.116095 153 0 76
-0.545310 -0.161600 0.039205 153 0 76
0.597690 0.508552 -0.513671 204 51 127
-0.548993 -0.195891 0.119442 153 0 76
-0.388066 -0.161600 0.483878 153 0 76
0.521298 0.168048 -0.317081 204 51 127
0.150813 -0.161600 -0.045421 127 0 127
0.681364 -0.193927 0.334876 153 0 76
-0.099720 -0.179941 -0.066768 153 0 76
0.613759 -0.161600 0.489785 153 0 76
0.069913 -0.195891 0.420110 153 0 76
0.205965 0.355291 -0.405388 153 0 76
0.117597 0.213369 -0.323449 153 0 76
0.221060 0.207291 -0.339738 204 51 127
0.097997 0.471821 -0.492465 204 51 127
0.631054 0.505715 -0.512033 204 51 127
-0.533164 -0.161600 0.628172 153 0 76
-0.498900 -0.156786 0.263131 153 0 76
-0.051030 -0.195891 0.691470 153 0 76
0.301083 0.445334 -0.477172 204 51 127
-0.216204 -0.195891 -0.061875 153 0 76
-0.494659 0.272457 -0.377362 204 51 127
0.073451 0.296856 -0.375794 153 0 76
0.661029 -0.179583 0.258784 153 0 76
-0.455763 -0.177549 -0.184492 153 0 76
0.583934 -0.154853 0.292473 153 0 76
0.590549 0.504911 -0.491771 204 51 127
-0.551983 -0.012305 -0.193156 153 0 76
-0.186238 -0.121793 -0.149741 204 51 127
-0.370424 0.237564 -0.357216 204 51 127
-0.325326 -0.157825 -0.087800 127 0 127
-0.393013 -0.179941 -0.069560 153 0 76
0.659437 -0.161600 0.021680 153 0 76
0.055657 -0.195273 0.744037 153 0 76
0.126124 0.138400 -0.280166 204 51 127
0.405334 -0.049016 -0.171962 153 0 76
-0.131203 -0.195891 0.605241 153 0 76
0.116507 0.488829 -0.502284 204 51 127
0.313007 0.272291 -0.377266 204 51 127
0.442194 0.153880 -0.289103 153 0 76
-0.493503 0.147717 -0.305343 204 51 127
0.434359 0.257701 -0.349044 153 0 76
0.103621 0.499344 -0.488557 204 51 127
0.339013 -0.156524 -0.105748 127 0 127
0.196203 -0.161600 0.610593 153 0 76
0.228571 -0.161600 0.424574 153 0 76
0.360271 -0.161600 0.666300 153 0 76
-0.563511 -0.132794 -0.143390 153 0 76
-0.326127 0.002023 -0.221227 204 51 127
0.189764 0.199417 -0.337992 204 51 127
-0.049068 0.286829 -0.385659 204 51 127
-0.610203 -0.161600 0.657255 153 0 76
-0.452257 0.309820 -0.379136 153 0 76
0.453806 0.318263 -0.403808 204 51 127
-0.188083 -0.195891 -0.127010 153 0 76
-0.225670 -0.121876 -0.149694 204 51 127
0.529416 0.399260 -0.430774 153 0 76
-0.116634 -0.177549 -0.185486 153 0 76
-0.237344 0.467493 -0.489966 204 51 127
-0.069062 -0.154853 0.268128 0 127 127
0.084254 -0.160005 -0.028439 153 0 76
0.459344 0.057962 -0.253523 204 51 127
0.628232 -0.179941 -0.150501 153 0 76
0.097460 0.142037 -0.302064 204 51 127
-0.272212 -0.195891 0.275609 153 0 76
-0.203569 -0.161600 0.032225 153 0 76
-0.275097 -0.195891 0.006584 153 0 76
-0.350185 0.121470 -0.270392 153 0 76
0.377032 -0.023361 -0.186774 153 0 76
0.489495 -0.161600 0.600616 153 0 76
-0.503760 -0.195891 -0.138291 153 0 76
0.301712 0.098662 -0.257223 153 0 76
-0.446259 -0.195891 0.007596 153 0 76
-0.479357 -0.195891 0.664766 153 0 76
0.369636 -0.155781 0.155369 0 127 127
-0.283611 0.506103 -0.512257 204 51 127
0.224514 -0.161600 0.654029 153 0 76
-0.194768 -0.161600 0.264641 153 0 76
-0.414936 -0.179941 -0.132067 153 0 76
-0.319922 -0.161600 0.633702 153 0 76
-0.187868 -0.158269 -0.128682 204 51 127
-0.030886 -0.195891 0.125826 153 0 76
0.032053 0.005184 -0.203254 204 51 127
-0.092130 -0.154853 0.353005 0 127 127
-0.044254 0.197088 -0.314049 153 0 76
0.455007 0.005149 -0.223032 204 51 127
-0.212466 -0.089903 -0.168153 204 51 127
-0.294148 -0.073842 -0.177426 204 51 127
0.452490 -0.160005 0.015771 153 0 76
-0.363223 -0.195891 0.729992 153 0 76
0.276266 0.006143 -0.203808 204 51 127
-0.128531 0.125923 -0.292761 204 51 127
-0.010236 0.056348 -0.232793 204 51 127
-0.219911 -0.195891 0.002602 153 0 76
-0.349695 -0.157242 0.210089 0 127 127
0.151652 -0.195891 0.481401 153 0 76
0.476174 0.014812 -0.228610 204 51 127
0.646392 -0.093973 -0.143978 204 51 127
0.454680 0.194417 -0.312507 153 0 76
0.609151 0.411543 -0.457663 204 51 127
0.395280 -0.161600 0.341893 153 0 76
0.142657 -0.195891 0.234953 153 0 76
-0.101394 0.271369 -0.356935 153 0 76
-0.606441 -0.167581 0.137202 153 0 76
-0.475692 0.512768 -0.497029 153 0 76
-0.647447 -0.175512 0.554547 153 0 76
-0.151400 0.058498 -0.253833 204 51 127
-0.427364 -0.047530 -0.176963 153 0 76
-0.497702 -0.195891 0.040216 153 0 76
0.056164 0.440395 -0.454523 153 0 76
-0.343138 -0.179941 -0.096439 153 0 76
-0.011734 0.103838 -0.280010 204 51 127
-0.316988 -0.098963 -0.147268 153 0 76
0.243343 -0.161600 0.141374 153 0 76
0.453942 -0.161600 -0.049874 127 0 127
-0.067630 0.246403 -0.346666 153 0 76
0.350232 -0.134261 -0.122745 127 0 127
-0.398122 -0.154853 0.338154 0 127 127
0.450865 -0.161600 0.529563 153 0 76
0.372373 0.133171 -0.277147 153 0 76
0.189995 0.003187 -0.202101 204 51 127
-0.649208 0.340960 -0.393011 204 51 127
0.291677 -0.161600 0.689881 153 0 76
-0.268918 -0.161600 0.656034 153 0 76
-0.116485 -0.195891 -0.100980 153 0 76
0.663382 -0.166453 -0.107591 153 0 76
-0.221704 0.479944 -0.497154 204 51 127
0.506268 -0.160005 -0.017540 153 0 76
0.639142 -0.161886 0.324660 153 0 76
-0.065552 0.544792 -0.520012 204 51 127
-0.048070 -0.161600 0.360217 0 127 127
-0.228279 -0.161600 0.207913 153 0 76
0.114913 0.053019 -0.230871 153 0 76
-0.115257 -0.195891 0.709119 153 0 76
-0.055968 0.032069 -0.218776 153 0 76
-0.649216 -0.181829 0.584609 153 0 76
0.456233 -0.161341 -0.071340 127 0 127
-0.599522 0.218690 -0.346319 204 51 127
0.449869 -0.183362 0.749220 153 0 76
-0.278158 0.331330 -0.391554 153 0 76
0.259733 0.155488 -0.309830 204 51 127
0.550411 -0.164790 0.001296 153 0 76
0.288164 -0.195891 0.254016 153 0 76
-0.372669 0.029546 -0.237117 204 51 127
0.622252 -0.109123 -0.157057 204 51 127
-0.523164 0.397147 -0.449351 204 51 127
0.042063 -0.162197 -0.034671 153 0 76
-0.628503 -0.195891 0.249103 153 0 76
-0.168424 -0.034435 -0.180379 204 51 127
-0.570971 0.173466 -0.300412 204 51 127
-0.208811 0.129381 -0.294757 204 51 127
0.109388 -0.154853 0.410735 0 127 127
0.388852 -0.195891 0.192087 153 0 76
0.046836 -0.161600 0.421417 153 0 76
-0.105375 -0.195891 -0.079659 153 0 76
0.400131 -0.159104 0.104228 0 127 127
0.477928 0.212403 -0.327035 204 51 127
-0.582101 -0.179941 -0.138901 153 0 76
-0.639169 -0.195891 0.681001 153 0 76
0.124830 -0.043287 -0.195067 204 51 127
-0.355509 0.066053 -0.238397 204 51 127
0.051480 -0.179941 -0.103950 153 0 76
0.584379 0.373152 -0.415700 153 0 76
-0.648020 -0.163350 -0.046979 153 0 76
0.463298 0.535409 -0.505235 204 51 127
0.111036 -0.195891 0.205390 153 0 76
0.339198 -0.179941 -0.144468 153 0 76
-0.415386 0.025156 -0.214785 153 0 76
0.523566 -0.161600 0.376841 0 127 127
0.449475 -0.164790 -0.022923 153 0 76
0.487545 -0.195891 0.463005 153 0 76
0.308359 -0.195891 0.339388 153 0 76
-0.502135 0.122861 -0.271195 153 0 76
-0.197143 -0.195493 0.744037 153 0 76
0.472754 -0.195891 0.190469 153 0 76
0.432462 -0.161600 0.543197 153 0 76
0.340574 -0.154853 0.342589 0 127 127
-0.425274 0.007163 -0.204396 204 51 127
-0.525753 0.325491 -0.388183 204 51 127
0.146534 0.507599 -0.513121 204 51 127
0.516597 -0.161600 0.670978 153 0 76
0.213528 -0.154853 0.097448 0 127 127
0.150916 -0.159606 0.680685 153 0 76
-0.080407 -0.195891 0.127496 153 0 76
-0.054004 -0.068282 -0.160838 153 0 76
0.409908 -0.161600 0.679382 153 0 76
-0.521152 -0.099459 -0.162636 204 51 127
0.176236 0.049794 -0.233153 204 51 127
-0.394836 -0.195891 -0.182779 153 0 76
0.106760 0.359974 -0.427890 204 51 127
0.027096 -0.154853 0.408540 153 0 76
0.312717 0.112597 -0.285067 204 51 127
0.343480 -0.195891 0.719489 153 0 76
0.283498 -0.161600 0.474181 153 0 76
-0.217900 0.274744 -0.379753 204 51 127
-0.310763 0.220620 -0.347434 204 51 127
-0.193376 -0.195891 0.163902 153 0 76
-0.312497 -0.195891 0.331075 153 0 76
-0.091222 -0.154853 0.389926 153 0 76
-0.353312 0.085777 -0.269582 204 51 127
0.130911 -0.195891 0.010942 153 0 76
-0.610075 -0.177549 -0.157948 204 51 127
-0.423349 -0.161600 0.633415 153 0 76
0.252497 0.185701 -0.329759 204 51 127
-0.504203 0.335203 -0.413588 204 51 127
0.368334 -0.159130 0.210089 0 127 127
0.118328 -0.195891 0.301512 153 0 76
0.531016 -0.161600 0.489375 153 0 76
0.533612 -0.161600 0.646991 153 0 76
-0.098412 -0.163195 0.528712 76 0 153
-0.408198 -0.161360 0.153117 0 127 127
0.328928 -0.147472 -0.134916 153 0 76
-0.206036 -0.166595 -0.107836 127 0 127
-0.278396 0.232886 -0.354516 204 51 127
-0.635659 -0.174977 0.517712 153 0 76
0.183016 -0.195891 -0.128573 153 0 76
-0.490875 -0.161600 0.565588 153 0 76
0.221782 -0.079744 -0.154220 204 51 127
-0.115087 -0.154853 0.082593 0 127 127
-0.436517 -0.066697 -0.181551 204 51 127
0.070535 -0.158917 0.193058 0 127 127
0.326048 0.501072 -0.489555 153 0 76
0.375367 -0.195891 0.123975 153 0 76
0.662062 -0.161600 0.058854 153 0 76
-0.031181 -0.163195 0.537091 76 0 153
-0.474636 0.400652 -0.431577 204 51 127
0.374363 0.361375 -0.408900 153 0 76
-0.176836 0.361957 -0.409237 153 0 76
0.524006 -0.147519 -0.134889 204 51 127
0.181288 -0.195891 0.728768 153 0 76
-0.542749 -0.179941 -0.149069 153 0 76
-0.596341 0.257267 -0.368592 204 51 127
0.297697 0.376505 -0.417636 153 0 76
-0.575547 0.405554 -0.454205 204 51 127
0.138122 -0.167581 0.015756 153 0 76
-0.509251 -0.164790 -0.001506 153 0 76
-0.300497 0.349492 -0.402040 204 51 127
-0.336257 -0.161434 -0.070456 127 0 127
0.008074 -0.161600 0.047216 153 0 76
-0.531465 -0.195891 0.049699 153 0 76
-0.465515 -0.195891 0.621585 153 0 76
0.316669 -0.195891 0.267602 153 0 76
-0.237079 0.252649 -0.365926 204 51 127
-0.420589 0.473869 -0.493647 204 51 127
-0.402344 -0.097334 -0.163863 204 51 127
-0.121552 0.367274 -0.432105 204 51 127
0.457627 0.305306 -0.380673 153 0 76
-0.502750 0.095883 -0.255619 204 51 127
-0.402207 -0.037981 -0.198131 204 51 127
-0.189551 -0.195891 0.423417 153 0 76
-0.367421 0.106560 -0.265927 153 0 76
0.148611 -0.195891 0.261709 153 0 76
-0.010690 0.338874 -0.415708 204 51 127
0.316488 0.384695 -0.442163 204 51 127
0.264380 -0.152479 -0.132025 153 0 76
0.678064 -0.124188 -0.124417 204 51 127
-0.245116 0.089752 -0.252079 153 0 76
0.033863 0.262520 -0.375535 204 51 127
0.120488 0.454062 -0.462413 204 51 127
-0.244858 -0.195891 0.357242 153 0 76
-0.229847 -0.154853 0.269878 153 0 76
-0.185578 -0.021909 -0.207409 204 51 127
0.363503 -0.166090 0.746464 153 0 76
0.633847 -0.085200 -0.170868 204 51 127
-0.329488 -0.161600 0.259220 153 0 76
-0.333740 -0.195891 -0.072983 153 0 76
0.433972 -0.154853 0.382845 0 127 127
0.489237 0.196150 -0.333306 204 51 127
-0.154549 -0.154853 0.333354 0 127 127
0.133070 0.432405 -0.449910 153 0 76
-0.054601 -0.195891 -0.078243 153 0 76
0.132003 -0.161600 0.053898 153 0 76
0.587161 -0.055748 -0.187873 204 51 127
0.403897 -0.195891 0.692989 153 0 76
-0.146990 -0.167182 0.616259 76 0 153
0.134838 -0.154853 0.235392 0 127 127
-0.640356 -0.195891 0.354731 153 0 76
-0.045783 0.488145 -0.486235 204 51 127
-0.233259 0.003111 -0.202057 153 0 76
-0.425969 -0.099674 -0.162512 204 51 127
-0.261533 0.195098 -0.336608 204 51 127
0.183093 -0.195891 0.190847 153 0 76
0.286823 -0.195891 0.015010 153 0 76
0.088967 0.032350 -0.238736 204 51 127
0.512995 -0.195891 0.304259 153 0 76
0.476777 -0.179941 -0.100726 153 0 76
-0.373631 0.124067 -0.271891 153 0 76
-0.183404 -0.179941 -0.074859 153 0 76
0.415530 -0.169088 -0.112155 153 0 76
-0.505289 0.276241 -0.359748 204 51 127
0.287725 -0.114082 -0.154194 204 51 127
0.466298 -0.195891 -0.117227 153 0 76
0.257969 -0.177549 -0.156697 153 0 76
-0.056607 0.412958 -0.438682 153 0 76
0.539521 -0.195891 0.718488 153 0 76
0.528499 0.123194 -0.291185 204 51 127
0.364922 0.358271 -0.426906 204 51 127
-0.053616 0.239378 -0.358264 204 51 127
0.254638 -0.158870 -0.084632 127 0 127
-0.017653 -0.195891 0.328267 153 0 76
0.086003 -0.195891 -0.080186 153 0 76
-0.288303 0.548250 -0.514022 204 51 127
-0.460192 -0.164715 0.439852 153 0 76
-0.331359 0.042362 -0.224718 204 51 127
-0.545205 0.095520 -0.275207 204 51 127
-0.340619 -0.195891 0.439603 153 0 76
0.347084 0.185569 -0.327197 204 51 127
0.461329 0.132422 -0.276715 153 0 76
0.205493 0.325334 -0.388092 204 51 127
-0.228968 0.480328 -0.477578 153 0 76
0.188571 -0.074567 -0.157210 204 51 127
0.339443 0.042808 -0.224976 204 51 127
-0.076909 -0.161600 0.378741 0 127 127
-0.567392 0.215908 -0.324915 153 0 76
0.269321 0.394096 -0.447590 204 51 127
-0.404005 0.079866 -0.246371 204 51 127
0.565588 0.286706 -0.365791 204 51 127
-0.551639 -0.179941 -0.095661 153 0 76
0.610415 -0.161600 0.710080 153 0 76
0.031146 -0.195891 0.513734 153 0 76
0.038540 0.338586 -0.415542 204 51 127
-0.185712 0.273203 -0.377793 204 51 127
-0.350305 -0.118297 -0.151760 204 51 127
-0.320337 -0.195891 0.092966 153 0 76
-0.421157 -0.195891 0.156299 153 0 76
0.662685 -0.161600 0.205721 153 0 76
-0.451532 0.230294 -0.333221 153 0 76
-0.383002 -0.161146 0.023123 153 0 76
-0.013039 0.019894 -0.211747 153 0 76
0.501633 0.055008 -0.251817 204 51 127
0.513007 0.469916 -0.491365 204 51 127
-0.107301 -0.034120 -0.200359 204 51 127
-0.481262 0.312474 -0.400466 204 51 127
-0.192880 -0.157914 0.225276 0 127 127
0.542435 -0.195891 -0.184778 153 0 76
0.425069 0.475090 -0.474554 153 0 76
0.239423 0.122616 -0.271053 204 51 127
0.587571 -0.161600 0.045886 153 0 76
0.452985 -0.161600 0.128366 153 0 76
-0.415816 0.329531 -0.410314 204 51 127
-0.531141 0.357441 -0.426428 204 51 127
-0.364180 0.089114 -0.251711 204 51 127
0.242101 0.191315 -0.310717 204 51 127
-0.475743 -0.160579 0.361904 0 127 127
0.524495 0.317921 -0.383812 153 0 76
0.109231 -0.124720 -0.132397 153 0 76
-0.131212 -0.022932 -0.187021 153 0 76
0.282025 0.034179 -0.219994 153 0 76
-0.648020 -0.178642 -0.074760 153 0 76
0.638677 -0.161600 0.397468 153 0 76
0.570670 0.464065 -0.487987 204 51 127
-0.549930 -0.038453 -0.178060 153 0 76
0.060404 -0.162999 -0.065695 127 0 127
-0.247257 -0.195891 0.297457 153 0 76
0.154839 0.116352 -0.287235 204 51 127
0.315631 0.168909 -0.301924 153 0 76
0.097500 0.245600 -0.342058 153 0 76
0.671543 -0.195891 0.103119 153 0 76
-0.036114 -0.195891 0.213906 153 0 76
-0.346107 0.295004 -0.370581 153 0 76
0.184191 -0.195891 -0.050339 153 0 76
-0.449414 -0.164790 0.004314 153 0 76
-0.341383 0.057632 -0.253333 204 51 127
0.264042 -0.161600 0.630709 153 0 76
-0.222342 -0.195891 -0.100408 153 0 76
-0.506587 0.219176 -0.326802 153 0 76
-0.001145 0.389037 -0.424872 153 0 76
0.529723 0.495803 -0.486513 153 0 76
-0.552538 -0.158315 0.317853 153 0 76
0.614539 -0.195891 0.162153 153 0 76
-0.383083 0.294374 -0.370218 153 0 76
0.661888 0.222107 -0.324351 204 51 127
-0.105194 0.246271 -0.342445 153 0 76
0.470351 -0.161600 0.642135 153 0 76
-0.360704 -0.195891 0.411810 153 0 76
0.553850 0.037659 -0.222003 204 51 127
-0.283719 -0.195891 0.060086 153 0 76
0.502768 0.166397 -0.316128 204 51 127
-0.418030 0.265356 -0.357608 153 0 76
0.158096 -0.195891 0.347375 153 0 76
0.414641 -0.150479 -0.133180 204 51 127
-0.426748 0.279707 -0.381548 204 51 127
0.340447 0.326196 -0.408388 204 51 127
0.675003 -0.136306 -0.141362 204 51 127
0.014392 -0.022100 -0.207299 204 51 127
0.434993 0.012500 -0.207477 153 0 76
-0.544357 0.494287 -0.485637 204 51 127
0.056286 -0.179941 -0.139876 153 0 76
-0.336899 0.311579 -0.399949 204 51 127
0.615930 0.490545 -0.503275 204 51 127
0.419438 0.506496 -0.492687 204 51 127
0.092281 -0.195891 0.686821 153 0 76
0.464113 0.465987 -0.469299 153 0 76
-0.630281 -0.195891 0.477192 153 0 76
-0.625520 0.093133 -0.273829 204 51 127
-0.078235 0.016233 -0.229431 204 51 127
0.421340 -0.161600 -0.044538 127 0 127
-0.324304 -0.175417 -0.065695 127 0 127
0.176431 0.390237 -0.425564 153 0 76
0.664728 0.201413 -0.336344 204 51 127
-0.533018 -0.069428 -0.179974 204 51 127
-0.298503 -0.195891 -0.075701 153 0 76
-0.223429 0.496833 -0.506905 204 51 127
0.400254 -0.160670 -0.076651 127 0 127
-0.191909 -0.195891 0.494907 153 0 76
0.151951 0.289502 -0.387203 204 51 127
0.409272 0.536968 -0.530078 204 51 127
-0.641430 0.449420 -0.455590 204 51 127
0.384610 -0.195891 -0.026293 153 0 76
-0.218769 -0.052643 -0.189665 204 51 127
0.435057 0.495930 -0.506384 204 51 127
0.358373 -0.195891 0.589061 153 0 76
0.368172 0.157070 -0.310743 204 51 127
0.047952 0.020198 -0.231720 204 51 127
-0.176199 0.243642 -0.340927 204 51 127
0.464975 -0.161600 0.481998 153 0 76
0.180878 -0.195891 0.442967 153 0 76
0.281764 0.442424 -0.455694 153 0 76
0.141834 0.186750 -0.327879 204 51 127
0.060071 0.003336 -0.221985 204 51 127
0.643952 -0.161600 0.533137 153 0 76
0.170372 -0.161600 0.378431 0 127 127
-0.145467 0.040888 -0.223867 204 51 127
-0.559709 -0.161600 0.727153 153 0 76
0.397791 0.341574 -0.397469 153 0 76
0.217058 -0.051925 -0.170282 153 0 76
-0.626501 -0.167140 0.745631 153 0 76
-0.362242 -0.179941 -0.129346 153 0 76
-0.193725 -0.166675 -0.036089 153 0 76
-0.077511 0.475955 -0.479198 153 0 76
0.523506 0.169720 -0.298249 153 0 76
-0.173846 -0.195891 0.351791 153 0 76
-0.048538 -0.195891 0.485419 153 0 76
0.656545 -0.179941 -0.141233 153 0 76
-0.123594 -0.195891 -0.066178 153 0 76
0.184324 -0.029188 -0.183409 153 0 76
-0.252761 -0.195891 0.202060 153 0 76
0.135073 -0.161600 0.709715 153 0 76
-0.030080 -0.163195 0.620483 76 0 153
-0.590282 -0.022903 -0.206836 204 51 127
-0.447366 -0.179941 -0.088699 153 0 76
0.351655 -0.038195 -0.198007 204 51 127
0.176211 0.225230 -0.334441 153 0 76
-0.057327 -0.161600 0.341576 153 0 76
-0.476552 0.024496 -0.234202 204 51 127
-0.330394 -0.161600 0.421992 153 0 76
-0.192790 0.478815 -0.476704 204 51 127
-0.178099 -0.161600 0.028755 153 0 76
0.022467 0.388784 -0.444523 204 51 127
-0.235983 0.290987 -0.368262 204 51 127
-0.416301 0.184567 -0.306820 204 51 127
-0.397237 0.264461 -0.352948 153 0 76
-0.443573 0.091170 -0.252898 153 0 76
-0.503566 0.324856 -0.387816 153 0 76
-0.391730 -0.034334 -0.180438 153 0 76
0.518106 -0.161600 0.250396 0 127 127
-0.296419 -0.047190 -0.192814 204 51 127
0.496121 0.436599 -0.452331 153 0 76
0.175378 -0.154853 0.180739 0 127 127
0.557521 0.001306 -0.201015 153 0 76
0.162940 0.067560 -0.239267 153 0 76
0.077135 0.116733 -0.287455 204 51 127
0.326846 -0.195891 -0.081958 153 0 76
-0.498221 -0.195891 0.288664 153 0 76
0.411207 -0.195891 0.444923 153 0 76
-0.482503 -0.195891 -0.071570 153 0 76
-0.016433 -0.147203 -0.111129 127 0 127
-0.253708 -0.177549 -0.186982 153 0 76
-0.574935 -0.095834 -0.144931 204 51 127
-0.372448 0.512026 -0.515677 204 51 127
0.612390 0.322409 -0.386404 153 0 76
-0.328608 -0.154853 0.392605 0 127 127
0.587160 -0.161600 0.694857 153 0 76
-0.548249 0.393182 -0.427265 153 0 76
0.374994 -0.190351 0.743132 153 0 76
0.205018 0.435493 -0.451693 153 0 76
-0.179048 -0.195891 0.642211 153 0 76
-0.310089 -0.195891 0.406879 153 0 76
0.630321 -0.161600 0.687387 153 0 76
0.126862 0.169308 -0.317809 204 51 127
-0.434264 -0.084375 -0.171345 204 51 127
0.372435 -0.195891 -0.089160 153 0 76
-0.057713 0.311394 -0.399842 204 51 127
-0.466980 -0.195891 0.492170 153 0 76
-0.371313 -0.164790 -0.002037 153 0 76
-0.601937 -0.075895 -0.176241 204 51 127
-0.566915 -0.195891 -0.093548 153 0 76
0.084882 -0.162939 -0.125986 153 0 76
0.225398 0.331564 -0.411487 204 51 127
0.265968 0.458515 -0.484782 204 51 127
-0.632085 -0.195891 0.126038 153 0 76
-0.099374 0.338849 -0.395895 204 51 127
0.489395 -0.195891 0.373244 153 0 76
-0.396792 -0.195891 0.691675 153 0 76
-0.403123 -0.161600 0.040915 153 0 76
0.077040 -0.163195 0.570043 153 0 76
-0.047456 -0.029272 -0.183360 153 0 76
0.483093 0.380349 -0.423999 204 51 127
0.579855 -0.161600 0.732474 153 0 76
-0.390817 0.181254 -0.324706 204 51 127
0.362534 -0.195891 0.402824 153 0 76
0.498052 0.040766 -0.223797 204 51 127
-0.477629 -0.018602 -0.209319 204 51 127
0.410871 -0.070080 -0.159800 153 0 76
0.424214 -0.175396 -0.065695 127 0 127
-0.116398 -0.195891 0.475291 153 0 76
0.540911 -0.154853 0.224350 0 127 127
-0.510835 -0.156370 0.062232 153 0 76
0.182062 -0.154853 0.325678 0 127 127
-0.357253 -0.195891 -0.062455 153 0 76
0.666363 -0.195891 0.302359 153 0 76
0.584049 -0.195891 0.039720 153 0 76
-0.584667 0.054547 -0.231754 153 0 76
-0.262155 -0.154853 0.101442 0 127 127
0.213817 0.079025 -0.265684 204 51 127
0.679844 -0.173862 0.583527 153 0 76
0.265843 0.475176 -0.494402 204 51 127
-0.064999 -0.130616 -0.144648 204 51 127
-0.148305 0.483559 -0.479443 153 0 76
0.061873 -0.195891 0.572823 153 0 76
0.454603 -0.195891 0.198660 153 0 76
-0.521109 0.267680 -0.374604 204 51 127
-0.406485 0.427266 -0.446943 153 0 76
-0.499629 -0.195891 0.475927 153 0 76
0.257254 -0.036735 -0.179052 153 0 76
0.214904 0.043777 -0.225536 153 0 76
0.350171 -0.173034 -0.120157 153 0 76
0.239688 -0.195891 0.433437 153 0 76
-0.032476 -0.195891 0.062873 153 0 76
0.100107 -0.195891 0.169571 153 0 76
0.554002 -0.072323 -0.178303 204 51 127
-0.633195 0.162458 -0.289912 204 51 127
0.566687 0.427334 -0.466780 204 51 127
0.370152 -0.161600 0.727223 153 0 76
-0.548325 0.275383 -0.379051 204 51 127
-0.230725 -0.161600 0.592651 153 0 76
0.680176 0.100462 -0.257443 204 51 127
-0.366813 0.291293 -0.388237 204 51 127
0.518444 0.037673 -0.222011 204 51 127
-0.409574 0.183660 -0.326095 204 51 127
-0.452189 0.246600 -0.362433 204 51 127
0.411774 0.342987 -0.418082 204 51 127
-0.414705 -0.195891 -0.093579 153 0 76
-0.613775 0.298324 -0.392296 204 51 127
0.515258 -0.116181 -0.133184 153 0 76
-0.464001 0.014973 -0.208906 153 0 76
0.529073 0.052352 -0.250284 204 51 127
-0.245044 -0.195891 0.694523 153 0 76
0.088597 0.256682 -0.372164 204 51 127
0.150424 -0.065031 -0.166859 153 0 76
0.207568 0.174814 -0.324317 204 51 127
-0.048606 -0.179941 -0.088583 153 0 76
0.004875 0.504892 -0.511558 204 51 127
0.396410 -0.136644 -0.121369 204 51 127
-0.341363 0.194676 -0.332455 204 51 127
-0.279902 -0.190843 0.747927 153 0 76
-0.324823 -0.161600 0.119644 0 127 127
-0.620417 -0.133969 -0.122914 204 51 127
-0.181787 0.388891 -0.424787 153 0 76
-0.178687 -0.154853 0.191389 0 127 127
0.147985 0.422601 -0.444250 204 51 127
-0.318737 -0.161671 -0.035919 127 0 127
0.246923 0.513200 -0.496514 153 0 76
0.548767 0.075992 -0.244135 153 0 76
-0.389120 0.134046 -0.277652 153 0 76
-0.135143 0.414212 -0.439406 153 0 76
0.663353 0.202978 -0.313307 204 51 127
0.186402 -0.101160 -0.146000 153 0 76
0.225373 -0.161600 0.586356 153 0 76
-0.616873 -0.195891 -0.037077 153 0 76
0.016415 -0.195891 0.315263 153 0 76
-0.130758 0.191036 -0.314699 153 0 76
0.494494 0.232635 -0.354371 204 51 127
-0.544306 -0.161600 0.647264 153 0 76
-0.432037 0.046388 -0.227043 153 0 76
0.229279 -0.161600 0.686460 153 0 76
-0.260867 0.373513 -0.435706 204 51 127
0.139008 -0.164790 -0.008933 153 0 76
0.240794 -0.164790 -0.004653 153 0 76
0.637853 0.154991 -0.309543 204 51 127
0.249241 0.367934 -0.412688 204 51 127
-0.431635 -0.174654 0.749220 153 0 76
-0.527596 -0.195891 0.714863 153 0 76
0.471087 0.251618 -0.345532 153 0 76
0.343443 0.241455 -0.339665 153 0 76
0.663993 -0.161600 0.316527 153 0 76
0.352545 0.212173 -0.342557 204 51 127
-0.161351 0.272033 -0.377117 204 51 127
0.656472 0.229657 -0.352651 204 51 127
-0.074969 -0.177549 -0.155498 153 0 76
0.272385 -0.012452 -0.197216 153 0 76
-0.536499 -0.179941 -0.069083 153 0 76
0.440155 0.303172 -0.375297 153 0 76
0.284954 -0.154853 0.167420 0 127 127
-0.228308 -0.179941 -0.087114 153 0 76
0.298038 -0.177549 -0.167439 153 0 76
-0.056285 -0.161600 0.398887 153 0 76
0.335224 -0.154853 0.187701 0 127 127
-0.482609 -0.195891 -0.145015 153 0 76
0.374340 -0.179941 -0.145766 153 0 76
-0.476252 -0.161600 0.056652 153 0 76
-0.157510 -0.195891 -0.085611 153 0 76
-0.055349 -0.180534 -0.187808 153 0 76
-0.112798 -0.154853 0.419205 0 127 127
0.622104 -0.195891 0.125411 153 0 76
0.326995 0.289813 -0.387382 204 51 127
-0.565811 -0.161600 0.393810 0 127 127
-0.398833 -0.161600 -0.059259 127 0 127
0.680175 -0.195891 -0.186423 153 0 76
0.332130 -0.116141 -0.153005 204 51 127
-0.265552 0.244602 -0.345626 153 0 76
0.577581 -0.195891 0.171028 153 0 76
-0.328288 -0.177549 -0.187725 153 0 76
0.114848 0.392336 -0.430920 153 0 76
0.035636 0.119175 -0.288864 204 51 127
0.332225 -0.077186 -0.175496 204 51 127
0.159068 0.494374 -0.505486 204 51 127
-0.547749 0.533406 -0.504079 204 51 127
0.165824 -0.161600 0.257854 0 127 127
0.150213 0.035238 -0.240403 204 51 127
0.452525 0.461546 -0.486532 204 51 127
-0.598803 -0.195891 0.692155 153 0 76
0.018814 0.149343 -0.286484 153 0 76
0.148695 0.256475 -0.372044 204 51 127
-0.494912 0.449736 -0.459916 204 51 127
-0.119086 0.105422 -0.280924 204 51 127
0.679342 0.324722 -0.383596 204 51 127
0.035102 -0.159105 -0.083772 127 0 127
-0.603820 0.463046 -0.467600 153 0 76
0.131157 -0.177549 -0.164677 153 0 76
-0.466040 0.320322 -0.385198 153 0 76
0.585868 -0.161600 0.676546 153 0 76
0.003613 -0.195891 0.258994 153 0 76
0.399880 0.395419 -0.428556 153 0 76
0.369943 0.295826 -0.390854 204 51 127
-0.529037 -0.154853 0.343916 0 127 127
-0.132600 -0.163195 0.566524 76 0 153
0.547966 -0.154853 0.290994 0 127 127
0.257713 0.266900 -0.358499 204 51 127
-0.434622 0.396049 -0.448718 204 51 127
0.471061 -0.154853 0.389696 0 127 127
-0.040266 -0.195891 0.560672 153 0 76
0.585554 0.456867 -0.464033 153 0 76
-0.182851 -0.195891 -0.165459 153 0 76
-0.216474 -0.195891 0.035859 153 0 76
-0.302190 0.495966 -0.506405 204 51 127
-0.038551 -0.100950 -0.161775 204 51 127
0.557917 0.437921 -0.453095 153 0 76
0.062719 0.209637 -0.345002 204 51 127
0.200594 0.471832 -0.492471 204 51 127
-0.516529 -0.147872 -0.110743 204 51 127
-0.003074 0.056780 -0.252841 204 51 127
-0.570386 0.389365 -0.444859 204 51 127
0.017110 -0.195891 0.006707 153 0 76
0.335141 0.165208 -0.295644 204 51 127
-0.034987 -0.195891 0.587433 153 0 76
0.092561 -0.008231 -0.215307 204 51 127
0.625836 0.349394 -0.406127 153 0 76
0.295142 -0.195891 0.486055 153 0 76
0.387300 0.494488 -0.505552 204 51 127
0.202783 -0.195891 0.583393 153 0 76
-0.206641 0.057844 -0.237801 204 51 127
0.391566 0.412262 -0.438280 153 0 76
0.223567 0.243086 -0.340607 153 0 76
-0.135659 -0.105356 -0.139434 204 51 127
-0.438806 0.349896 -0.422071 204 51 127
0.231666 0.308937 -0.378626 153 0 76
-0.125257 -0.195891 -0.018994 153 0 76
-0.534593 0.196181 -0.313526 204 51 127
0.633397 0.136150 -0.298665 204 51 127
-0.246355 -0.161600 0.563036 153 0 76
-0.313165 -0.076099 -0.156325 204 51 127
0.453634 -0.194741 -0.187808 153 0 76
-0.545051 -0.195891 0.249765 153 0 76
0.560443 -0.195891 -0.079498 153 0 76
-0.615636 -0.161600 0.422550 153 0 76
-0.589502 -0.160005 0.294110 153 0 76
-0.648020 -0.181223 -0.003375 153 0 76
-0.505717 0.411299 -0.437725 153 0 76
-0.068132 0.289544 -0.367429 153 0 76
0.179789 -0.154853 0.087956 0 127 127
0.362456 0.391332 -0.430340 204 51 127
0.463325 0.093524 -0.274055 204 51 127
-0.122723 0.388498 -0.444358 153 0 76
0.128462 -0.161600 0.135013 153 0 76
-0.318536 -0.165740 0.442351 153 0 76
-0.176154 0.088216 -0.251192 153 0 76
0.013239 0.416454 -0.460498 204 51 127
-0.262400 -0.179941 -0.114426 153 0 76
0.034949 -0.155411 -0.130332 153 0 76
0.491347 -0.154853 0.276890 0 127 127
-0.203061 -0.161600 0.726074 153 0 76
0.489275 0.392624 -0.446740 204 51 127
-0.132653 -0.192325 0.743467 153 0 76
0.566057 -0.195891 0.653015 153 0 76
0.596764 0.064896 -0.257526 204 51 127
-0.463144 -0.195891 0.560037 153 0 76
0.515622 -0.195891 0.383798 153 0 76
-0.222890 0.460640 -0.466212 153 0 76
0.000919 0.217541 -0.345656 204 51 127
-0.100598 -0.161600 0.056387 153 0 76
0.238856 0.034153 -0.239777 204 51 127
0.630415 -0.148770 -0.134167 153 0 76
0.099939 0.325710 -0.408108 204 51 127
-0.106729 0.184793 -0.311095 153 0 76
0.088792 -0.148057 -0.106031 127 0 127
-0.084041 -0.130064 -0.144966 204 51 127
-0.381067 0.271449 -0.361125 204 51 127
0.038733 -0.154853 0.175391 153 0 76
0.093949 -0.195891 0.061380 153 0 76
0.464190 -0.181918 -0.154713 153 0 76
0.501745 -0.161600 0.481107 153 0 76
0.003423 -0.179941 -0.115460 153 0 76
-0.224177 -0.177549 -0.162364 153 0 76
-0.609983 0.182115 -0.305498 204 51 127
0.008521 -0.089466 -0.148608 204 51 127
-0.584031 -0.162570 -0.102257 204 51 127
0.272505 -0.195891 0.221929 153 0 76
0.612058 -0.096236 -0.144699 153 0 76
0.251085 -0.140063 -0.118090 127 0 127
0.581778 -0.115790 -0.153207 204 51 127
0.195641 0.501305 -0.489689 153 0 76
0.294470 0.064358 -0.237418 204 51 127
-0.307388 0.048828 -0.248250 204 51 127
0.100344 -0.161600 0.695069 153 0 76
0.531574 -0.094587 -0.165449 204 51 127
-0.587047 -0.195891 0.658615 153 0 76
-0.547903 0.394946 -0.448081 204 51 127
0.390062 0.386313 -0.443097 204 51 127
0.680929 -0.179941 -0.108506 153 0 76
-0.121027 -0.155443 0.358635 0 127 127
-0.321237 0.503271 -0.510622 204 51 127
-0.199293 0.339131 -0.415856 204 51 127
0.522114 0.412367 -0.442485 204 51 127
-0.473608 -0.129072 -0.125741 204 51 127
-0.350216 -0.195891 0.457243 153 0 76
-0.187978 -0.195891 0.069450 153 0 76
0.382894 -0.195891 0.726918 153 0 76
-0.023718 0.546003 -0.511352 204 51 127
-0.618912 -0.083968 -0.171580 204 51 127
-0.649208 0.076569 -0.259268 204 51 127
0.565868 -0.195891 0.035637 153 0 76
-0.376960 0.332752 -0.412173 204 51 127
0.199824 -0.154853 0.233520 0 127 127
0.221280 0.264911 -0.353207 153 0 76
-0.322351 -0.168517 -0.122765 153 0 76
0.236598 -0.188098 -0.154713 153 0 76
-0.566061 -0.161600 0.500584 153 0 76
-0.327194 -0.195891 -0.168688 153 0 76
0.314793 0.265268 -0.357557 204 51 127
-0.236670 0.364874 -0.410921 204 51 127
-0.624386 -0.161600 -0.085829 153 0 76
-0.395984 0.324429 -0.391714 204 51 127
-0.168629 -0.116136 -0.153007 204 51 127
-0.226073 0.274251 -0.362744 153 0 76
-0.036737 -0.018141 -0.209585 204 51 127
-0.052557 -0.163802 0.703363 153 0 76
-0.263244 -0.154853 0.162630 0 127 127
0.233115 -0.060998 -0.184842 204 51 127
0.215415 0.397860 -0.429966 153 0 76
-0.027448 -0.179941 -0.102772 153 0 76
0.405759 -0.195891 0.065199 153 0 76
0.049120 0.366259 -0.411720 204 51 127
-0.357350 -0.195891 0.512972 153 0 76
0.631759 0.017342 -0.210273 153 0 76
0.174702 -0.053349 -0.189258 204 51 127
-0.280564 0.415718 -0.440276 153 0 76
0.577842 0.037288 -0.241587 204 51 127
-0.164944 -0.195891 0.026262 153 0 76
-0.390548 0.345691 -0.399846 204 51 127
0.666274 -0.161600 0.269482 153 0 76
-0.161092 -0.179941 -0.105997 153 0 76
0.509471 -0.041981 -0.195821 204 51 127
0.166718 -0.134591 -0.142353 204 51 127
-0.307333 0.311069 -0.379856 153 0 76
-0.529212 0.295864 -0.390876 204 51 127
-0.584330 0.058155 -0.253634 204 51 127
0.378341 0.495065 -0.486087 153 0 76
-0.578993 -0.195891 0.066588 153 0 76
0.628663 0.235138 -0.336018 204 51 127
-0.032688 0.259813 -0.354408 204 51 127
0.124498 -0.195891 0.081896 153 0 76
0.064238 -0.044103 -0.194596 204 51 127
-0.587522 -0.195891 0.603357 153 0 76
0.155138 -0.195891 0.288545 153 0 76
-0.549921 -0.131631 -0.123928 153 0 76
-0.458864 0.353132 -0.404142 153 0 76
0.245119 -0.195891 -0.077485 153 0 76
0.434287 -0.040039 -0.177144 153 0 76
-0.053143 0.390531 -0.445532 204 51 127
0.401434 -0.195891 -0.150379 153 0 76
0.212858 -0.010714 -0.213873 204 51 127
-0.256154 -0.195891 0.714557 153 0 76
-0.576928 0.091398 -0.253029 204 51 127
0.207206 0.212345 -0.327002 153 0 76
0.085970 0.439757 -0.473953 204 51 127
0.654719 -0.195891 0.013839 153 0 76
0.424080 -0.177549 -0.178254 153 0 76
-0.356465 -0.195891 0.005444 153 0 76
0.528972 0.438119 -0.473007 204 51 127
0.628144 0.065519 -0.238088 153 0 76
0.089914 -0.116998 -0.132712 204 51 127
0.252693 0.211669 -0.322468 153 0 76
0.565410 -0.195891 0.205211 153 0 76
0.211160 -0.177549 -0.175525 153 0 76
0.254759 -0.161600 0.369861 153 0 76
-0.335753 0.109542 -0.267649 204 51 127
-0.578618 -0.195891 -0.111481 153 0 76
0.490631 0.115329 -0.286644 204 51 127
0.436805 0.116476 -0.287306 204 51 127
-0.119153 -0.038124 -0.178250 153 0 76
-0.151426 0.041818 -0.244203 204 51 127
0.281956 0.241872 -0.339906 153 0 76
0.643268 -0.161600 0.246115 153 0 76
0.414438 0.203835 -0.317945 204 51 127
-0.000855 -0.074460 -0.157271 153 0 76
-0.516258 -0.161600 0.585204 153 0 76
0.336774 -0.195891 0.415894 153 0 76
-0.427114 -0.195891 0.117523 153 0 76
-0.267439 0.121506 -0.270412 204 51 127
0.109521 -0.195891 0.132986 153 0 76
0.567823 0.349506 -0.421846 204 51 127
0.520639 0.230274 -0.353008 204 51 127
-0.284296 -0.195891 -0.101497 153 0 76
0.451849 -0.195891 0.606396 153 0 76
0.102142 0.312520 -0.380694 153 0 76
-0.498002 -0.195891 0.712406 153 0 76
-0.462927 0.200462 -0.335795 204 51 127
0.325798 0.244231 -0.361066 204 51 127
0.631262 -0.195891 0.077286 153 0 76
-0.477745 0.457335 -0.484101 204 51 127
0.555212 0.249107 -0.344083 204 51 127
-0.428960 -0.195891 0.033868 153 0 76
-0.626967 0.547562 -0.515213 204 51 127
0.464055 -0.195891 0.655993 153 0 76
0.084209 -0.195891 -0.122540 153 0 76
-0.144918 0.337335 -0.414819 204 51 127
-0.626333 -0.161600 0.560604 153 0 76
0.231235 0.520366 -0.520492 204 51 127
-0.255586 0.016666 -0.229681 204 51 127
-0.241583 0.015109 -0.213128 153 0 76
0.523909 0.199471 -0.315425 153 0 76
-0.396539 0.292796 -0.389105 204 51 127
0.640952 -0.122215 -0.129719 153 0 76
-0.251808 -0.094444 -0.145734 153 0 76
0.681364 -0.181394 -0.043196 153 0 76
0.361191 0.142065 -0.302080 204 51 127
-0.638655 0.132458 -0.272592 204 51 127
0.108093 0.079248 -0.246015 153 0 76
-0.049767 0.084526 -0.253206 153 0 76
0.265819 0.310938 -0.379781 153 0 76
0.161070 -0.161600 0.117790 153 0 76
-0.260047 -0.161600 0.574917 153 0 76
-0.134613 0.239881 -0.358554 204 51 127
-0.017756 -0.043838 -0.194749 204 51 127
0.481349 0.419695 -0.442572 204 51 127
0.627002 0.082341 -0.267599 204 51 127
-0.132083 0.328549 -0.389948 153 0 76
0.163266 0.037933 -0.222162 204 51 127
0.442136 -0.112244 -0.135457 153 0 76
-0.602600 0.132055 -0.276502 153 0 76
0.314809 -0.131745 -0.125924 153 0 76
-0.250515 -0.161600 0.521253 153 0 76
-0.274601 0.026204 -0.215389 153 0 76
0.213860 -0.195891 0.509724 153 0 76
-0.431868 0.490164 -0.483257 153 0 76
0.426728 0.067470 -0.259013 204 51 127
0.676892 -0.161600 0.561609 153 0 76
0.186943 -0.161600 0.147253 153 0 76
0.270330 -0.195891 0.081087 153 0 76
-0.552681 -0.195891 0.281232 153 0 76
-0.236235 0.225369 -0.354085 204 51 127
-0.553062 0.357336 -0.406569 153 0 76
0.360603 -0.161600 0.257442 153 0 76
0.232548 -0.195891 0.199058 153 0 76
-0.273788 -0.161600 0.736008 153 0 76
0.611027 -0.195891 0.648057 153 0 76
-0.639929 -0.195891 -0.104058 153 0 76
-0.425859 -0.195891 0.053487 153 0 76
0.672092 0.365590 -0.407190 204 51 127
0.361335 -0.195891 0.256179 153 0 76
-0.317494 0.357115 -0.426239 204 51 127
-0.595590 -0.191001 0.747514 153 0 76
-0.185713 0.161788 -0.297813 204 51 127
0.196520 -0.154853 0.253894 153 0 76
0.473403 0.289345 -0.387112 204 51 127
0.237118 -0.195891 -0.113951 153 0 76
0.635694 0.178234 -0.303164 153 0 76
0.616996 -0.002807 -0.218438 204 51 127
-0.629950 0.469157 -0.466985 204 51 127
-0.408820 0.276301 -0.379581 204 51 127
-0.445385 -0.195891 0.180730 153 0 76
0.370320 0.095418 -0.275149 204 51 127
0.681364 -0.176964 0.370712 153 0 76
-0.287821 -0.160005 -0.012457 153 0 76
0.600448 0.133936 -0.277589 153 0 76
0.680176 0.470517 -0.488466 204 51 127
0.357555 0.229722 -0.352689 204 51 127
-0.421928 0.025780 -0.234943 204 51 127
0.198142 -0.160693 0.319908 153 0 76
0.246062 0.168625 -0.317414 204 51 127
0.037190 -0.195891 0.375079 153 0 76
0.314195 -0.162128 -0.126454 204 51 127
0.657706 0.322565 -0.382350 204 51 127
0.332579 -0.195891 0.334752 153 0 76
-0.330256 0.420308 -0.462724 204 51 127
-0.387467 -0.161600 0.529585 153 0 76
-0.506164 -0.043640 -0.194863 204 51 127
0.292118 -0.195891 -0.185813 153 0 76
-0.289195 -0.092350 -0.166740 204 51 127
-0.549274 -0.195891 0.598496 153 0 76
0.196156 -0.148420 -0.134368 153 0 76
-0.186060 0.389296 -0.444819 204 51 127
-0.346683 0.447672 -0.478523 204 51 127
0.163025 -0.161600 0.078022 153 0 76
0.400843 0.029074 -0.221190 153 0 76
-0.308358 0.271390 -0.376746 204 51 127
-0.114123 -0.195891 0.435815 153 0 76
0.517400 -0.195891 -0.071258 153 0 76
-0.293502 0.441660 -0.455253 153 0 76
0.481053 -0.195891 0.621001 153 0 76
-0.141548 0.205778 -0.319066 153 0 76
-0.213574 -0.195891 0.364948 153 0 76
0.324253 -0.195891 0.627861 153 0 76
0.637942 -0.167581 0.215703 153 0 76
0.269139 0.270622 -0.380212 204 51 127
-0.115847 0.515859 -0.498092 204 51 127
-0.402449 0.355556 -0.425339 204 51 127
0.210881 0.129669 -0.275125 153 0 76
0.481297 -0.154853 0.219415 0 127 127
0.392821 -0.161600 0.252545 153 0 76
-0.095083 -0.112418 -0.155154 204 51 127
0.048852 -0.163195 0.589267 76 0 153
-0.101901 -0.179941 -0.133347 153 0 76
-0.400774 -0.195891 -0.038511 153 0 76
0.392011 -0.165475 -0.105898 127 0 127
-0.423685 0.410744 -0.457202 204 51 127
0.305466 0.135273 -0.278360 153 0 76
-0.413154 -0.161600 0.198099 0 127 127
-0.425189 -0.179941 -0.074861 153 0 76
-0.372527 0.432189 -0.469583 204 51 127
-0.070974 -0.004675 -0.201706 204 51 127
0.371669 -0.179236 -0.065695 153 0 76
-0.048575 -0.195891 0.256925 153 0 76
0.608097 0.209300 -0.340898 204 51 127
0.084811 0.494237 -0.485609 204 51 127
0.567431 0.196387 -0.317789 153 0 76
-0.435267 -0.195891 0.641722 153 0 76
-0.273131 -0.161600 0.508476 153 0 76
0.421822 0.158580 -0.291817 153 0 76
-0.212502 -0.012071 -0.213090 204 51 127
-0.202815 -0.154853 0.399289 0 127 127
0.051087 0.391399 -0.426235 153 0 76
-0.340870 -0.154171 -0.107106 153 0 76
0.222756 0.418427 -0.461638 204 51 127
-0.523734 0.489237 -0.502520 204 51 127
0.625477 -0.164790 0.125940 153 0 76
0.475537 0.344728 -0.399290 153 0 76
-0.254095 -0.078640 -0.174656 204 51 127
0.172767 0.524197 -0.499476 204 51 127
-0.395086 0.101309 -0.278549 204 51 127
-0.144976 -0.161600 0.048058 153 0 76
-0.058497 -0.161600 0.115668 153 0 76
0.378821 -0.160005 -0.017069 153 0 76
-0.137495 0.241630 -0.339766 153 0 76
0.112609 -0.154853 0.390034 153 0 76
-0.352982 0.535469 -0.529212 204 51 127
0.302043 -0.049677 -0.175724 204 51 127
-0.004285 0.135040 -0.298024 204 51 127
-0.231386 -0.195891 0.266176 153 0 76
-0.377030 -0.161600 0.613661 153 0 76
0.658179 0.038863 -0.242496 204 51 127
0.444028 0.301460 -0.394107 204 51 127
-0.087587 -0.179941 -0.104868 153 0 76
0.397752 -0.195891 0.350144 153 0 76
-0.266510 -0.006619 -0.216238 204 51 127
0.680176 0.459296 -0.462789 204 51 127
-0.375632 0.065009 -0.257592 204 51 127
0.545839 0.191749 -0.330765 204 51 127
0.310882 -0.156763 0.419444 0 127 127
0.310982 -0.160005 0.003681 153 0 76
0.281392 0.081381 -0.267044 204 51 127
0.240730 0.233132 -0.334860 153 0 76
0.384632 0.063447 -0.236892 153 0 76
0.605350 -0.161600 0.457514 153 0 76
-0.018369 0.466646 -0.469679 153 0 76
0.483266 0.180370 -0.324195 204 51 127
-0.035462 -0.076233 -0.156247 153 0 76
0.282000 -0.154853 0.232500 0 127 127
0.423926 -0.161600 0.298076 153 0 76
-0.524978 0.214291 -0.328126 153 0 76
0.181745 0.328443 -0.409686 204 51 127
0.508602 -0.154853 0.236763 0 127 127
0.284821 -0.195891 0.626206 153 0 76
-0.623086 -0.195891 0.559774 153 0 76
-0.530233 0.161205 -0.293333 204 51 127
0.595705 -0.195891 0.318919 153 0 76
-0.444233 -0.071987 -0.158699 153 0 76
0.409775 0.127153 -0.273672 204 51 127
0.604670 -0.083211 -0.156362 204 51 127
0.517608 -0.195891 0.549027 153 0 76
0.135234 -0.195891 0.513427 153 0 76
0.281530 -0.179941 -0.134431 153 0 76
0.499500 0.010626 -0.226194 204 51 127
0.485084 0.009634 -0.205823 153 0 76
-0.559886 0.365550 -0.431109 204 51 127
0.605189 -0.052272 -0.189880 204 51 127
-0.004833 0.495746 -0.486480 153 0 76
0.649399 -0.059571 -0.185665 204 51 127
-0.382369 -0.111143 -0.140236 204 51 127
0.577708 -0.179941 -0.105784 153 0 76
-0.136337 0.544573 -0.510526 204 51 127
-0.436636 0.151912 -0.307765 204 51 127
0.609634 -0.161600 0.592926 153 0 76
0.178939 0.234147 -0.356017 204 51 127
0.382027 -0.195891 0.281375 153 0 76
0.026676 -0.161600 -0.064855 127 0 127
0.097475 0.441704 -0.455278 153 0 76
-0.613040 0.471479 -0.492267 204 51 127
0.349784 0.451079 -0.460691 204 51 127
-0.199976 -0.195891 0.585652 153 0 76
-0.126681 -0.130756 -0.144567 204 51 127
0.145657 -0.161600 0.197873 0 127 127
0.125228 0.229647 -0.332848 204 51 127
0.067308 0.049985 -0.248918 204 51 127
0.528406 0.287284 -0.370268 153 0 76
-0.180087 0.298746 -0.392540 204 51 127
0.600510 -0.161600 0.421339 153 0 76
0.429715 -0.179941 -0.130435 153 0 76
-0.265062 -0.099143 -0.162819 204 51 127
-0.286250 0.122896 -0.291013 204 51 127
-0.501150 0.226779 -0.350990 204 51 127
-0.201835 -0.030751 -0.182507 204 51 127
0.288641 0.506677 -0.492791 204 51 127
-0.105120 0.352467 -0.423556 204 51 127
-0.468529 0.140432 -0.281339 153 0 76
-0.016245 -0.125254 -0.127945 153 0 76
0.004215 -0.185201 0.749220 153 0 76
-0.504705 -0.074321 -0.157351 153 0 76
0.510169 0.079579 -0.246206 153 0 76
0.282169 -0.161600 0.147254 0 127 127
-0.011186 -0.154853 0.245151 0 127 127
0.014058 0.341897 -0.401799 153 0 76
-0.530633 0.413124 -0.458576 204 51 127
-0.342557 0.492327 -0.488650 153 0 76
-0.114078 -0.154853 0.225214 153 0 76
-0.497095 -0.154853 0.104003 0 127 127
0.264378 0.388863 -0.428914 204 51 127
-0.281554 -0.010177 -0.194385 153 0 76
-0.024820 -0.154853 0.355144 0 127 127
0.346987 -0.161600 0.043757 153 0 76
0.229943 -0.195891 0.470668 153 0 76
0.145927 -0.161600 0.363078 153 0 76
0.297840 -0.160005 -0.018905 153 0 76
0.411369 -0.161600 0.523874 153 0 76
-0.031058 -0.195891 0.171112 153 0 76
-0.575737 0.236273 -0.356471 204 51 127
-0.386687 0.044044 -0.225690 153 0 76
-0.606023 -0.040594 -0.196622 204 51 127
0.048117 -0.154853 0.355062 153 0 76
0.324243 0.155355 -0.309753 204 51 127
-0.280260 0.198794 -0.315034 153 0 76
-0.498395 -0.181297 -0.187808 153 0 76
-0.213333 -0.179941 -0.143314 153 0 76
-0.243468 -0.161600 0.684936 153 0 76
-0.130188 0.351016 -0.402920 153 0 76
-0.249139 -0.195891 0.675735 153 0 76
0.643691 0.489236 -0.502519 204 51 127
0.039475 0.072617 -0.246330 153 0 76
-0.453688 0.472500 -0.473059 153 0 76
0.072780 -0.191057 0.741246 153 0 76
-0.438334 0.325891 -0.392558 153 0 76
0.542362 0.142053 -0.282275 153 0 76
-0.451758 -0.195891 0.210088 153 0 76
-0.291992 -0.154853 0.100721 0 127 127
0.422074 -0.195891 0.671250 153 0 76
0.459744 0.539253 -0.529606 204 51 127
-0.445665 0.458407 -0.464922 153 0 76
0.582507 -0.164298 -0.065695 153 0 76
-0.176844 0.093095 -0.273807 204 51 127
0.473737 0.232060 -0.354039 204 51 127
-0.306026 -0.195891 0.723738 153 0 76
0.306914 -0.195891 0.717610 153 0 76
-0.358688 -0.154853 0.398195 0 127 127
-0.490146 -0.195891 0.160094 153 0 76
0.473708 0.197694 -0.314399 153 0 76
-0.629567 -0.161600 -0.054002 153 0 76
-0.194946 -0.195891 0.549571 153 0 76
0.348734 0.537370 -0.530310 204 51 127
-0.648020 -0.181301 -0.135783 153 0 76
0.357293 0.310100 -0.379297 153 0 76
0.524446 -0.195891 0.164106 153 0 76
0.114444 -0.005274 -0.197216 153 0 76
0.556782 -0.161600 0.052150 153 0 76
0.135306 -0.195891 -0.132612 153 0 76
-0.294822 0.295917 -0.371109 153 0 76
0.106170 -0.190351 0.744761 153 0 76
0.355543 0.124551 -0.276314 204 51 127
-0.346585 -0.061445 -0.184584 204 51 127
0.215317 -0.154853 0.389461 0 127 127
-0.369137 -0.161600 0.200967 153 0 76
0.167481 -0.175307 0.749220 153 0 76
-0.150910 0.469537 -0.491146 204 51 127
-0.486889 -0.161600 0.711566 153 0 76
-0.075932 -0.136379 -0.118677 153 0 76
-0.629437 0.536103 -0.529578 204 51 127
-0.431760 -0.027487 -0.184391 153 0 76
0.631329 0.119072 -0.269007 204 51 127
0.235539 -0.195891 0.020180 153 0 76
-0.279628 0.449567 -0.479616 204 51 127
-0.011457 -0.195891 -0.066501 153 0 76
0.053247 -0.059678 -0.165805 204 51 127
-0.007208 0.394041 -0.447558 204 51 127
-0.320944 0.159045 -0.292085 204 51 127
0.040460 -0.154853 0.383813 0 127 127
0.078897 -0.159606 0.666118 153 0 76
0.150147 0.144637 -0.303565 204 51 127
0.530797 0.511987 -0.495857 153 0 76
0.642541 0.447149 -0.458422 153 0 76
-0.584763 0.104703 -0.280509 204 51 127
0.416417 0.438715 -0.473351 204 51 127
0.383058 -0.195891 0.514677 153 0 76
0.047744 0.149537 -0.286596 153 0 76
-0.608008 -0.161600 0.560820 153 0 76
-0.589035 -0.032781 -0.181335 204 51 127
-0.470362 -0.077839 -0.175118 204 51 127
0.217003 0.508964 -0.513909 204 51 127
-0.004815 -0.112504 -0.155105 204 51 127
-0.649208 0.512754 -0.495415 204 51 127
-0.001610 0.314774 -0.381996 153 0 76
0.232930 -0.161600 0.176690 0 127 127
-0.300274 0.079518 -0.246170 153 0 76
-0.038794 0.040416 -0.223595 204 51 127
0.483422 -0.161600 0.119157 153 0 76
0.654047 0.455037 -0.482774 204 51 127
-0.166142 0.348633 -0.401544 204 51 127
-0.499664 0.429079 -0.467788 204 51 127
0.343149 0.083763 -0.268420 204 51 127
0.465917 -0.161600 0.052470 153 0 76
-0.184722 -0.195891 0.218133 153 0 76
-0.634775 -0.195891 0.630678 153 0 76
0.596831 0.399655 -0.450800 204 51 127
-0.379864 -0.072442 -0.162580 204 51 127
0.182567 0.317882 -0.387934 204 51 127
0.496590 -0.195891 0.572811 153 0 76
0.680176 0.414334 -0.457478 204 51 127
0.443458 -0.161600 0.505720 153 0 76
-0.148817 -0.195891 0.268711 153 0 76
-0.091127 -0.195891 0.238942 153 0 76
-0.085606 -0.195891 0.375405 153 0 76
-0.509264 -0.195891 0.354788 153 0 76
-0.265910 -0.161600 0.264164 0 127 127
-0.536277 0.209809 -0.341192 204 51 127
0.220714 -0.161600 0.036366 153 0 76
0.174486 -0.195891 0.135874 153 0 76
0.405035 -0.161600 0.433420 153 0 76
0.442045 -0.010289 -0.194320 153 0 76
-0.159636 -0.195891 0.214497 153 0 76
-0.549035 0.468278 -0.490419 204 51 127
-0.374312 0.201141 -0.336188 204 51 127
-0.416353 -0.195891 0.713867 153 0 76
0.341435 -0.164790 -0.012813 153 0 76
0.141882 -0.161600 0.305535 0 127 127
-0.299567 0.194240 -0.332203 204 51 127
0.475981 -0.162546 0.744037 153 0 76
0.393825 -0.161600 0.532979 153 0 76
0.544992 -0.154853 0.327639 153 0 76
0.364178 -0.163973 -0.103296 127 0 127
-0.507021 -0.161600 0.735786 153 0 76
-0.489689 0.189319 -0.309564 153 0 76
-0.163130 -0.195891 -0.015475 153 0 76
0.512199 0.522550 -0.521753 204 51 127
-0.134625 -0.160801 -0.103279 127 0 127
-0.392960 -0.156426 0.359849 0 127 127
-0.484951 -0.195891 0.072596 153 0 76
0.202405 -0.195891 0.416440 153 0 76
-0.482510 -0.059042 -0.166173 153 0 76
0.348059 0.478245 -0.480519 153 0 76
0.421031 0.431352 -0.449302 153 0 76
0.594150 -0.161600 0.224684 153 0 76
-0.227463 0.438514 -0.473235 204 51 127
0.358768 -0.195891 0.563450 153 0 76
0.605629 -0.162998 -0.102010 153 0 76
0.473574 -0.150809 -0.109047 127 0 127
0.499894 0.079556 -0.265991 204 51 127
0.236167 -0.161600 0.226944 0 127 127
0.047584 -0.132818 -0.143376 204 51 127
0.030459 0.307880 -0.397813 204 51 127
0.318898 -0.161600 0.455083 153 0 76
0.484296 0.228644 -0.332269 204 51 127
-0.342477 0.329303 -0.410182 204 51 127
-0.521706 0.246235 -0.342425 153 0 76
-0.649208 0.475370 -0.485985 204 51 127
0.400287 -0.195891 -0.127177 153 0 76
0.244495 0.468238 -0.490396 204 51 127
-0.334182 0.153280 -0.308555 204 51 127
